-0.396471 0.174254 -0.167739
-0.396471 0.183973 -0.164508
-0.396471 0.193692 -0.161277
-0.396471 0.203412 -0.158046
-0.396471 0.213131 -0.154815
-0.396471 0.22285 -0.151584
-0.396471 0.232569 -0.148353
-0.396471 0.242288 -0.145122
-0.37969 -0.233946 -0.293885
-0.37969 -0.224227 -0.290654
-0.37969 -0.214508 -0.287423
-0.37969 -0.204789 -0.284193
-0.37969 -0.19507 -0.280962
-0.37969 -0.185351 -0.277731
-0.37969 -0.175632 -0.2745
-0.37969 -0.165913 -0.271269
-0.37969 -0.156194 -0.268038
-0.37969 -0.146475 -0.264807
-0.37969 -0.136756 -0.261576
-0.37969 -0.127037 -0.258345
-0.37969 -0.117318 -0.255114
-0.37969 -0.107598 -0.251884
-0.37969 -0.0978794 -0.248653
-0.37969 -0.0881603 -0.245422
-0.37969 -0.0784413 -0.242191
-0.37969 -0.0687222 -0.23896
-0.37969 -0.0590032 -0.235729
-0.37969 -0.0492841 -0.232498
-0.37969 -0.039565 -0.229267
-0.37969 -0.029846 -0.226036
-0.37969 -0.0201269 -0.222805
-0.37969 -0.0104078 -0.219574
-0.37969 -0.000688786 -0.216344
-0.37969 0.00903028 -0.213113
-0.37969 0.0187493 -0.209882
-0.37969 0.0284684 -0.206651
-0.37969 0.0381875 -0.20342
-0.37969 0.0479065 -0.200189
-0.37969 0.0576256 -0.196958
-0.37969 0.0673446 -0.193727
-0.37969 0.0770637 -0.190496
-0.37969 0.0867828 -0.187265
-0.37969 0.0965018 -0.184035
-0.37969 0.106221 -0.180804
-0.37969 0.11594 -0.177573
-0.37969 0.125659 -0.174342
-0.37969 0.135378 -0.171111
-0.37969 0.145097 -0.16788
-0.37969 0.154816 -0.164649
-0.37969 0.164535 -0.161418
-0.37969 0.174254 -0.158187
-0.37969 0.183973 -0.154956
-0.37969 0.193692 -0.151726
-0.37969 0.203412 -0.148495
-0.37969 0.213131 -0.145264
-0.37969 0.22285 -0.142033
-0.37969 0.232569 -0.138802
-0.37969 0.242288 -0.135571
-0.36291 -0.233946 -0.284334
-0.36291 -0.224227 -0.281103
-0.36291 -0.214508 -0.277872
-0.36291 -0.204789 -0.274641
-0.36291 -0.19507 -0.27141
-0.36291 -0.185351 -0.268179
-0.36291 -0.175632 -0.264949
-0.36291 -0.165913 -0.261718
-0.36291 -0.156194 -0.258487
-0.36291 -0.146475 -0.255256
-0.36291 -0.136756 -0.252025
-0.36291 -0.127037 -0.248794
-0.36291 -0.117318 -0.245563
-0.36291 -0.107598 -0.242332
-0.36291 -0.0978794 -0.239101
-0.36291 -0.0881603 -0.23587
-0.36291 -0.0784413 -0.232639
-0.36291 -0.0687222 -0.229409
-0.36291 -0.0590032 -0.226178
-0.36291 -0.0492841 -0.222947
-0.36291 -0.039565 -0.219716
-0.36291 -0.029846 -0.216485
-0.36291 -0.0201269 -0.213254
-0.36291 -0.0104078 -0.210023
-0.36291 -0.000688786 -0.206792
-0.36291 0.00903028 -0.203561
-0.36291 0.0187493 -0.20033
-0.36291 0.0284684 -0.1971
-0.36291 0.0381875 -0.193869
-0.36291 0.0479065 -0.190638
-0.36291 0.0576256 -0.187407
-0.36291 0.0673446 -0.184176
-0.36291 0.0770637 -0.180945
-0.36291 0.0867828 -0.177714
-0.36291 0.0965018 -0.174483
-0.36291 0.106221 -0.171252
-0.36291 0.11594 -0.168021
-0.36291 0.125659 -0.164791
-0.36291 0.135378 -0.16156
-0.36291 0.145097 -0.158329
-0.36291 0.154816 -0.155098
-0.36291 0.164535 -0.151867
-0.36291 0.174254 -0.148636
-0.36291 0.183973 -0.145405
-0.36291 0.193692 -0.142174
-0.36291 0.203412 -0.138943
-0.36291 0.213131 -0.135712
-0.36291 0.22285 -0.132481
-0.36291 0.232569 -0.129251
-0.36291 0.242288 -0.12602
-0.346129 -0.233946 -0.274783
-0.346129 -0.224227 -0.271552
-0.346129 -0.214508 -0.268321
-0.346129 -0.204789 -0.26509
-0.346129 -0.19507 -0.261859
-0.346129 -0.185351 -0.258628
-0.346129 -0.175632 -0.255397
-0.346129 -0.165913 -0.252166
-0.346129 -0.156194 -0.248935
-0.346129 -0.146475 -0.245705
-0.346129 -0.136756 -0.242474
-0.346129 -0.127037 -0.239243
-0.346129 -0.117318 -0.236012
-0.346129 -0.107598 -0.232781
-0.346129 -0.0978794 -0.22955
-0.346129 -0.0881603 -0.226319
-0.346129 -0.0784413 -0.223088
-0.346129 -0.0687222 -0.219857
-0.346129 -0.0590032 -0.216626
-0.346129 -0.0492841 -0.213395
-0.346129 -0.039565 -0.210165
-0.346129 -0.029846 -0.206934
-0.346129 -0.0201269 -0.203703
-0.346129 -0.0104078 -0.200472
-0.346129 -0.000688786 -0.197241
-0.346129 0.00903028 -0.19401
-0.346129 0.0187493 -0.190779
-0.346129 0.0284684 -0.187548
-0.346129 0.0381875 -0.184317
-0.346129 0.0479065 -0.181086
-0.346129 0.0576256 -0.177856
-0.346129 0.0673446 -0.174625
-0.346129 0.0770637 -0.171394
-0.346129 0.0867828 -0.168163
-0.346129 0.0965018 -0.164932
-0.346129 0.106221 -0.161701
-0.346129 0.11594 -0.15847
-0.346129 0.125659 -0.155239
-0.346129 0.135378 -0.152008
-0.346129 0.145097 -0.148777
-0.346129 0.154816 -0.145546
-0.346129 0.164535 -0.142316
-0.346129 0.174254 -0.139085
-0.346129 0.183973 -0.135854
-0.346129 0.193692 -0.132623
-0.346129 0.203412 -0.129392
-0.346129 0.213131 -0.126161
-0.346129 0.22285 -0.12293
-0.346129 0.232569 -0.119699
-0.346129 0.242288 -0.116468
-0.329348 -0.233946 -0.265231
-0.329348 -0.224227 -0.262
-0.329348 -0.214508 -0.25877
-0.329348 -0.204789 -0.255539
-0.329348 -0.19507 -0.252308
-0.329348 -0.185351 -0.249077
-0.329348 -0.175632 -0.245846
-0.329348 -0.165913 -0.242615
-0.329348 -0.156194 -0.239384
-0.329348 -0.146475 -0.236153
-0.329348 -0.136756 -0.232922
-0.329348 -0.127037 -0.229691
-0.329348 -0.117318 -0.22646
-0.329348 -0.107598 -0.22323
-0.329348 -0.0978794 -0.219999
-0.329348 -0.0881603 -0.216768
-0.329348 -0.0784413 -0.213537
-0.329348 -0.0687222 -0.210306
-0.329348 -0.0590032 -0.207075
-0.329348 -0.0492841 -0.203844
-0.329348 -0.039565 -0.200613
-0.329348 -0.029846 -0.197382
-0.329348 -0.0201269 -0.194151
-0.329348 -0.0104078 -0.190921
-0.329348 -0.000688786 -0.18769
-0.329348 0.00903028 -0.184459
-0.329348 0.0187493 -0.181228
-0.329348 0.0284684 -0.177997
-0.329348 0.0381875 -0.174766
-0.329348 0.0479065 -0.171535
-0.329348 0.0576256 -0.168304
-0.329348 0.0673446 -0.165073
-0.329348 0.0770637 -0.161842
-0.329348 0.0867828 -0.158612
-0.329348 0.0965018 -0.155381
-0.329348 0.106221 -0.15215
-0.329348 0.11594 -0.148919
-0.329348 0.125659 -0.145688
-0.329348 0.135378 -0.142457
-0.329348 0.145097 -0.139226
-0.329348 0.154816 -0.135995
-0.329348 0.164535 -0.132764
-0.329348 0.174254 -0.129533
-0.329348 0.183973 -0.126302
-0.329348 0.193692 -0.123072
-0.329348 0.203412 -0.119841
-0.329348 0.213131 -0.11661
-0.329348 0.22285 -0.113379
-0.329348 0.232569 -0.110148
-0.329348 0.242288 -0.106917
-0.312568 -0.233946 -0.25568
-0.312568 -0.224227 -0.252449
-0.312568 -0.214508 -0.249218
-0.312568 -0.204789 -0.245987
-0.312568 -0.19507 -0.242756
-0.312568 -0.185351 -0.239525
-0.312568 -0.175632 -0.236295
-0.312568 -0.165913 -0.233064
-0.312568 -0.156194 -0.229833
-0.312568 -0.146475 -0.226602
-0.312568 -0.136756 -0.223371
-0.312568 -0.127037 -0.22014
-0.312568 -0.117318 -0.216909
-0.312568 -0.107598 -0.213678
-0.312568 -0.0978794 -0.210447
-0.312568 -0.0881603 -0.207216
-0.312568 -0.0784413 -0.203986
-0.312568 -0.0687222 -0.200755
-0.312568 -0.0590032 -0.197524
-0.312568 -0.0492841 -0.194293
-0.312568 -0.039565 -0.191062
-0.312568 -0.029846 -0.187831
-0.312568 -0.0201269 -0.1846
-0.312568 -0.0104078 -0.181369
-0.312568 -0.000688786 -0.178138
-0.312568 0.00903028 -0.174907
-0.312568 0.0187493 -0.171677
-0.312568 0.0284684 -0.168446
-0.312568 0.0381875 -0.165215
-0.312568 0.0479065 -0.161984
-0.312568 0.0576256 -0.158753
-0.312568 0.0673446 -0.155522
-0.312568 0.0770637 -0.152291
-0.312568 0.0867828 -0.14906
-0.312568 0.0965018 -0.145829
-0.312568 0.106221 -0.142598
-0.312568 0.11594 -0.139367
-0.312568 0.125659 -0.136137
-0.312568 0.135378 -0.132906
-0.312568 0.145097 -0.129675
-0.312568 0.154816 -0.126444
-0.312568 0.164535 -0.123213
-0.312568 0.174254 -0.119982
-0.312568 0.183973 -0.116751
-0.312568 0.193692 -0.11352
-0.312568 0.203412 -0.110289
-0.312568 0.213131 -0.107058
-0.312568 0.22285 -0.103828
-0.312568 0.232569 -0.100597
-0.312568 0.242288 -0.0973657
-0.295787 -0.233946 -0.246129
-0.295787 -0.224227 -0.242898
-0.295787 -0.214508 -0.239667
-0.295787 -0.204789 -0.236436
-0.295787 -0.19507 -0.233205
-0.295787 -0.185351 -0.229974
-0.295787 -0.175632 -0.226743
-0.295787 -0.165913 -0.223512
-0.295787 -0.156194 -0.220281
-0.295787 -0.146475 -0.217051
-0.295787 -0.136756 -0.21382
-0.295787 -0.127037 -0.210589
-0.295787 -0.117318 -0.207358
-0.295787 -0.107598 -0.204127
-0.295787 -0.0978794 -0.200896
-0.295787 -0.0881603 -0.197665
-0.295787 -0.0784413 -0.194434
-0.295787 -0.0687222 -0.191203
-0.295787 -0.0590032 -0.187972
-0.295787 -0.0492841 -0.184742
-0.295787 -0.039565 -0.181511
-0.295787 -0.029846 -0.17828
-0.295787 -0.0201269 -0.175049
-0.295787 -0.0104078 -0.171818
-0.295787 -0.000688786 -0.168587
-0.295787 0.00903028 -0.165356
-0.295787 0.0187493 -0.162125
-0.295787 0.0284684 -0.158894
-0.295787 0.0381875 -0.155663
-0.295787 0.0479065 -0.152432
-0.295787 0.0576256 -0.149202
-0.295787 0.0673446 -0.145971
-0.295787 0.0770637 -0.14274
-0.295787 0.0867828 -0.139509
-0.295787 0.0965018 -0.136278
-0.295787 0.106221 -0.133047
-0.295787 0.11594 -0.129816
-0.295787 0.125659 -0.126585
-0.295787 0.135378 -0.123354
-0.295787 0.145097 -0.120123
-0.295787 0.154816 -0.116893
-0.295787 0.164535 -0.113662
-0.295787 0.174254 -0.110431
-0.295787 0.183973 -0.1072
-0.295787 0.193692 -0.103969
-0.295787 0.203412 -0.100738
-0.295787 0.213131 -0.0975071
-0.295787 0.22285 -0.0942762
-0.295787 0.232569 -0.0910453
-0.295787 0.242288 -0.0878144
-0.279006 -0.233946 -0.236577
-0.279006 -0.224227 -0.233346
-0.279006 -0.214508 -0.230116
-0.279006 -0.204789 -0.226885
-0.279006 -0.19507 -0.223654
-0.279006 -0.185351 -0.220423
-0.279006 -0.175632 -0.217192
-0.279006 -0.165913 -0.213961
-0.279006 -0.156194 -0.21073
-0.279006 -0.146475 -0.207499
-0.279006 -0.136756 -0.204268
-0.279006 -0.127037 -0.201037
-0.279006 -0.117318 -0.197807
-0.279006 -0.107598 -0.194576
-0.279006 -0.0978794 -0.191345
-0.279006 -0.0881603 -0.188114
-0.279006 -0.0784413 -0.184883
-0.279006 -0.0687222 -0.181652
-0.279006 -0.0590032 -0.178421
-0.279006 -0.0492841 -0.17519
-0.279006 -0.039565 -0.171959
-0.279006 -0.029846 -0.168728
-0.279006 -0.0201269 -0.165498
-0.279006 -0.0104078 -0.162267
-0.279006 -0.000688786 -0.159036
-0.279006 0.00903028 -0.155805
-0.279006 0.0187493 -0.152574
-0.279006 0.0284684 -0.149343
-0.279006 0.0381875 -0.146112
-0.279006 0.0479065 -0.142881
-0.279006 0.0576256 -0.13965
-0.279006 0.0673446 -0.136419
-0.279006 0.0770637 -0.133188
-0.279006 0.0867828 -0.129958
-0.279006 0.0965018 -0.126727
-0.279006 0.106221 -0.123496
-0.279006 0.11594 -0.120265
-0.279006 0.125659 -0.117034
-0.279006 0.135378 -0.113803
-0.279006 0.145097 -0.110572
-0.279006 0.154816 -0.107341
-0.279006 0.164535 -0.10411
-0.279006 0.174254 -0.100879
-0.279006 0.183973 -0.0976485
-0.279006 0.193692 -0.0944176
-0.279006 0.203412 -0.0911867
-0.279006 0.213131 -0.0879558
-0.279006 0.22285 -0.0847249
-0.279006 0.232569 -0.081494
-0.279006 0.242288 -0.0782631
-0.262226 -0.233946 -0.227026
-0.262226 -0.224227 -0.223795
-0.262226 -0.214508 -0.220564
-0.262226 -0.204789 -0.217333
-0.262226 -0.19507 -0.214102
-0.262226 -0.185351 -0.210872
-0.262226 -0.175632 -0.207641
-0.262226 -0.165913 -0.20441
-0.262226 -0.156194 -0.201179
-0.262226 -0.146475 -0.197948
-0.262226 -0.136756 -0.194717
-0.262226 -0.127037 -0.191486
-0.262226 -0.117318 -0.188255
-0.262226 -0.107598 -0.185024
-0.262226 -0.0978794 -0.181793
-0.262226 -0.0881603 -0.178563
-0.262226 -0.0784413 -0.175332
-0.262226 -0.0687222 -0.172101
-0.262226 -0.0590032 -0.16887
-0.262226 -0.0492841 -0.165639
-0.262226 -0.039565 -0.162408
-0.262226 -0.029846 -0.159177
-0.262226 -0.0201269 -0.155946
-0.262226 -0.0104078 -0.152715
-0.262226 -0.000688786 -0.149484
-0.262226 0.00903028 -0.146253
-0.262226 0.0187493 -0.143023
-0.262226 0.0284684 -0.139792
-0.262226 0.0381875 -0.136561
-0.262226 0.0479065 -0.13333
-0.262226 0.0576256 -0.130099
-0.262226 0.0673446 -0.126868
-0.262226 0.0770637 -0.123637
-0.262226 0.0867828 -0.120406
-0.262226 0.0965018 -0.117175
-0.262226 0.106221 -0.113944
-0.262226 0.11594 -0.110714
-0.262226 0.125659 -0.107483
-0.262226 0.135378 -0.104252
-0.262226 0.145097 -0.101021
-0.262226 0.154816 -0.0977899
-0.262226 0.164535 -0.094559
-0.262226 0.174254 -0.0913281
-0.262226 0.183973 -0.0880972
-0.262226 0.193692 -0.0848663
-0.262226 0.203412 -0.0816354
-0.262226 0.213131 -0.0784045
-0.262226 0.22285 -0.0751736
-0.262226 0.232569 -0.0719427
-0.262226 0.242288 -0.0687118
-0.245445 -0.233946 -0.217475
-0.245445 -0.224227 -0.214244
-0.245445 -0.214508 -0.211013
-0.245445 -0.204789 -0.207782
-0.245445 -0.19507 -0.204551
-0.245445 -0.185351 -0.20132
-0.245445 -0.175632 -0.198089
-0.245445 -0.165913 -0.194858
-0.245445 -0.156194 -0.191628
-0.245445 -0.146475 -0.188397
-0.245445 -0.136756 -0.185166
-0.245445 -0.127037 -0.181935
-0.245445 -0.117318 -0.178704
-0.245445 -0.107598 -0.175473
-0.245445 -0.0978794 -0.172242
-0.245445 -0.0881603 -0.169011
-0.245445 -0.0784413 -0.16578
-0.245445 -0.0687222 -0.162549
-0.245445 -0.0590032 -0.159318
-0.245445 -0.0492841 -0.156088
-0.245445 -0.039565 -0.152857
-0.245445 -0.029846 -0.149626
-0.245445 -0.0201269 -0.146395
-0.245445 -0.0104078 -0.143164
-0.245445 -0.000688786 -0.139933
-0.245445 0.00903028 -0.136702
-0.245445 0.0187493 -0.133471
-0.245445 0.0284684 -0.13024
-0.245445 0.0381875 -0.127009
-0.245445 0.0479065 -0.123779
-0.245445 0.0576256 -0.120548
-0.245445 0.0673446 -0.117317
-0.245445 0.0770637 -0.114086
-0.245445 0.0867828 -0.110855
-0.245445 0.0965018 -0.107624
-0.245445 0.106221 -0.104393
-0.245445 0.11594 -0.101162
-0.245445 0.125659 -0.0979313
-0.245445 0.135378 -0.0947004
-0.245445 0.145097 -0.0914695
-0.245445 0.154816 -0.0882386
-0.245445 0.164535 -0.0850077
-0.245445 0.174254 -0.0817768
-0.245445 0.183973 -0.0785459
-0.245445 0.193692 -0.075315
-0.245445 0.203412 -0.0720841
-0.245445 0.213131 -0.0688532
-0.245445 0.22285 -0.0656223
-0.245445 0.232569 -0.0623914
-0.245445 0.242288 -0.0591605
-0.228665 -0.233946 -0.207923
-0.228665 -0.224227 -0.204693
-0.228665 -0.214508 -0.201462
-0.228665 -0.204789 -0.198231
-0.228665 -0.19507 -0.195
-0.228665 -0.185351 -0.191769
-0.228665 -0.175632 -0.188538
-0.228665 -0.165913 -0.185307
-0.228665 -0.156194 -0.182076
-0.228665 -0.146475 -0.178845
-0.228665 -0.136756 -0.175614
-0.228665 -0.127037 -0.172384
-0.228665 -0.117318 -0.169153
-0.228665 -0.107598 -0.165922
-0.228665 -0.0978794 -0.162691
-0.228665 -0.0881603 -0.15946
-0.228665 -0.0784413 -0.156229
-0.228665 -0.0687222 -0.152998
-0.228665 -0.0590032 -0.149767
-0.228665 -0.0492841 -0.146536
-0.228665 -0.039565 -0.143305
-0.228665 -0.029846 -0.140074
-0.228665 -0.0201269 -0.136844
-0.228665 -0.0104078 -0.133613
-0.228665 -0.000688786 -0.130382
-0.228665 0.00903028 -0.127151
-0.228665 0.0187493 -0.12392
-0.228665 0.0284684 -0.120689
-0.228665 0.0381875 -0.117458
-0.228665 0.0479065 -0.114227
-0.228665 0.0576256 -0.110996
-0.228665 0.0673446 -0.107765
-0.228665 0.0770637 -0.104535
-0.228665 0.0867828 -0.101304
-0.228665 0.0965018 -0.0980727
-0.228665 0.106221 -0.0948418
-0.228665 0.11594 -0.0916109
-0.228665 0.125659 -0.08838
-0.228665 0.135378 -0.0851491
-0.228665 0.145097 -0.0819182
-0.228665 0.154816 -0.0786873
-0.228665 0.164535 -0.0754564
-0.228665 0.174254 -0.0722255
-0.228665 0.183973 -0.0689946
-0.228665 0.193692 -0.0657637
-0.228665 0.203412 -0.0625328
-0.228665 0.213131 -0.0593019
-0.228665 0.22285 -0.056071
-0.228665 0.232569 -0.0528401
-0.228665 0.242288 -0.0496092
-0.211884 -0.233946 -0.198372
-0.211884 -0.224227 -0.195141
-0.211884 -0.214508 -0.19191
-0.211884 -0.204789 -0.188679
-0.211884 -0.19507 -0.185449
-0.211884 -0.185351 -0.182218
-0.211884 -0.175632 -0.178987
-0.211884 -0.165913 -0.175756
-0.211884 -0.156194 -0.172525
-0.211884 -0.146475 -0.169294
-0.211884 -0.136756 -0.166063
-0.211884 -0.127037 -0.162832
-0.211884 -0.117318 -0.159601
-0.211884 -0.107598 -0.15637
-0.211884 -0.0978794 -0.153139
-0.211884 -0.0881603 -0.149909
-0.211884 -0.0784413 -0.146678
-0.211884 -0.0687222 -0.143447
-0.211884 -0.0590032 -0.140216
-0.211884 -0.0492841 -0.136985
-0.211884 -0.039565 -0.133754
-0.211884 -0.029846 -0.130523
-0.211884 -0.0201269 -0.127292
-0.211884 -0.0104078 -0.124061
-0.211884 -0.000688786 -0.12083
-0.211884 0.00903028 -0.1176
-0.211884 0.0187493 -0.114369
-0.211884 0.0284684 -0.111138
-0.211884 0.0381875 -0.107907
-0.211884 0.0479065 -0.104676
-0.211884 0.0576256 -0.101445
-0.211884 0.0673446 -0.0982141
-0.211884 0.0770637 -0.0949832
-0.211884 0.0867828 -0.0917523
-0.211884 0.0965018 -0.0885214
-0.211884 0.106221 -0.0852905
-0.211884 0.11594 -0.0820596
-0.211884 0.125659 -0.0788287
-0.211884 0.135378 -0.0755978
-0.211884 0.145097 -0.0723669
-0.211884 0.154816 -0.069136
-0.211884 0.164535 -0.0659051
-0.211884 0.174254 -0.0626742
-0.211884 0.183973 -0.0594433
-0.211884 0.193692 -0.0562124
-0.211884 0.203412 -0.0529815
-0.211884 0.213131 -0.0497506
-0.211884 0.22285 -0.0465197
-0.211884 0.232569 -0.0432888
-0.211884 0.242288 -0.0400579
-0.195103 -0.233946 -0.188821
-0.195103 -0.224227 -0.18559
-0.195103 -0.214508 -0.182359
-0.195103 -0.204789 -0.179128
-0.195103 -0.19507 -0.175897
-0.195103 -0.185351 -0.172666
-0.195103 -0.175632 -0.169435
-0.195103 -0.165913 -0.166204
-0.195103 -0.156194 -0.162974
-0.195103 -0.146475 -0.159743
-0.195103 -0.136756 -0.156512
-0.195103 -0.127037 -0.153281
-0.195103 -0.117318 -0.15005
-0.195103 -0.107598 -0.146819
-0.195103 -0.0978794 -0.143588
-0.195103 -0.0881603 -0.140357
-0.195103 -0.0784413 -0.137126
-0.195103 -0.0687222 -0.133895
-0.195103 -0.0590032 -0.130665
-0.195103 -0.0492841 -0.127434
-0.195103 -0.039565 -0.124203
-0.195103 -0.029846 -0.120972
-0.195103 -0.0201269 -0.117741
-0.195103 -0.0104078 -0.11451
-0.195103 -0.000688786 -0.111279
-0.195103 0.00903028 -0.108048
-0.195103 0.0187493 -0.104817
-0.195103 0.0284684 -0.101586
-0.195103 0.0381875 -0.0983555
-0.195103 0.0479065 -0.0951246
-0.195103 0.0576256 -0.0918937
-0.195103 0.0673446 -0.0886628
-0.195103 0.0770637 -0.0854319
-0.195103 0.0867828 -0.082201
-0.195103 0.0965018 -0.0789701
-0.195103 0.106221 -0.0757392
-0.195103 0.11594 -0.0725083
-0.195103 0.125659 -0.0692774
-0.195103 0.135378 -0.0660465
-0.195103 0.145097 -0.0628156
-0.195103 0.154816 -0.0595847
-0.195103 0.164535 -0.0563538
-0.195103 0.174254 -0.0531229
-0.195103 0.183973 -0.049892
-0.195103 0.193692 -0.0466611
-0.195103 0.203412 -0.0434302
-0.195103 0.213131 -0.0401993
-0.195103 0.22285 -0.0369684
-0.195103 0.232569 -0.0337374
-0.195103 0.242288 -0.0305065
-0.178323 -0.233946 -0.17927
-0.178323 -0.224227 -0.176039
-0.178323 -0.214508 -0.172808
-0.178323 -0.204789 -0.169577
-0.178323 -0.19507 -0.166346
-0.178323 -0.185351 -0.163115
-0.178323 -0.175632 -0.159884
-0.178323 -0.165913 -0.156653
-0.178323 -0.156194 -0.153422
-0.178323 -0.146475 -0.150191
-0.178323 -0.136756 -0.14696
-0.178323 -0.127037 -0.14373
-0.178323 -0.117318 -0.140499
-0.178323 -0.107598 -0.137268
-0.178323 -0.0978794 -0.134037
-0.178323 -0.0881603 -0.130806
-0.178323 -0.0784413 -0.127575
-0.178323 -0.0687222 -0.124344
-0.178323 -0.0590032 -0.121113
-0.178323 -0.0492841 -0.117882
-0.178323 -0.039565 -0.114651
-0.178323 -0.029846 -0.111421
-0.178323 -0.0201269 -0.10819
-0.178323 -0.0104078 -0.104959
-0.178323 -0.000688786 -0.101728
-0.178323 0.00903028 -0.0984969
-0.178323 0.0187493 -0.095266
-0.178323 0.0284684 -0.0920351
-0.178323 0.0381875 -0.0888042
-0.178323 0.0479065 -0.0855733
-0.178323 0.0576256 -0.0823424
-0.178323 0.0673446 -0.0791115
-0.178323 0.0770637 -0.0758806
-0.178323 0.0867828 -0.0726497
-0.178323 0.0965018 -0.0694188
-0.178323 0.106221 -0.0661879
-0.178323 0.11594 -0.062957
-0.178323 0.125659 -0.0597261
-0.178323 0.135378 -0.0564952
-0.178323 0.145097 -0.0532643
-0.178323 0.154816 -0.0500334
-0.178323 0.164535 -0.0468025
-0.178323 0.174254 -0.0435716
-0.178323 0.183973 -0.0403407
-0.178323 0.193692 -0.0371097
-0.178323 0.203412 -0.0338788
-0.178323 0.213131 -0.0306479
-0.178323 0.22285 -0.027417
-0.178323 0.232569 -0.0241861
-0.178323 0.242288 -0.0209552
-0.161542 -0.233946 -0.169718
-0.161542 -0.224227 -0.166487
-0.161542 -0.214508 -0.163256
-0.161542 -0.204789 -0.160025
-0.161542 -0.19507 -0.156795
-0.161542 -0.185351 -0.153564
-0.161542 -0.175632 -0.150333
-0.161542 -0.165913 -0.147102
-0.161542 -0.156194 -0.143871
-0.161542 -0.146475 -0.14064
-0.161542 -0.136756 -0.137409
-0.161542 -0.127037 -0.134178
-0.161542 -0.117318 -0.130947
-0.161542 -0.107598 -0.127716
-0.161542 -0.0978794 -0.124486
-0.161542 -0.0881603 -0.121255
-0.161542 -0.0784413 -0.118024
-0.161542 -0.0687222 -0.114793
-0.161542 -0.0590032 -0.111562
-0.161542 -0.0492841 -0.108331
-0.161542 -0.039565 -0.1051
-0.161542 -0.029846 -0.101869
-0.161542 -0.0201269 -0.0986383
-0.161542 -0.0104078 -0.0954074
-0.161542 -0.000688786 -0.0921765
-0.161542 0.00903028 -0.0889456
-0.161542 0.0187493 -0.0857147
-0.161542 0.0284684 -0.0824838
-0.161542 0.0381875 -0.0792529
-0.161542 0.0479065 -0.076022
-0.161542 0.0576256 -0.0727911
-0.161542 0.0673446 -0.0695602
-0.161542 0.0770637 -0.0663293
-0.161542 0.0867828 -0.0630984
-0.161542 0.0965018 -0.0598675
-0.161542 0.106221 -0.0566366
-0.161542 0.11594 -0.0534057
-0.161542 0.125659 -0.0501748
-0.161542 0.135378 -0.0469439
-0.161542 0.145097 -0.043713
-0.161542 0.154816 -0.040482
-0.161542 0.164535 -0.0372511
-0.161542 0.174254 -0.0340202
-0.161542 0.183973 -0.0307893
-0.161542 0.193692 -0.0275584
-0.161542 0.203412 -0.0243275
-0.161542 0.213131 -0.0210966
-0.161542 0.22285 -0.0178657
-0.161542 0.232569 -0.0146348
-0.161542 0.242288 -0.0114039
-0.144761 -0.233946 -0.160167
-0.144761 -0.224227 -0.156936
-0.144761 -0.214508 -0.153705
-0.144761 -0.204789 -0.150474
-0.144761 -0.19507 -0.147243
-0.144761 -0.185351 -0.144012
-0.144761 -0.175632 -0.140781
-0.144761 -0.165913 -0.137551
-0.144761 -0.156194 -0.13432
-0.144761 -0.146475 -0.131089
-0.144761 -0.136756 -0.127858
-0.144761 -0.127037 -0.124627
-0.144761 -0.117318 -0.121396
-0.144761 -0.107598 -0.118165
-0.144761 -0.0978794 -0.114934
-0.144761 -0.0881603 -0.111703
-0.144761 -0.0784413 -0.108472
-0.144761 -0.0687222 -0.105242
-0.144761 -0.0590032 -0.102011
-0.144761 -0.0492841 -0.0987797
-0.144761 -0.039565 -0.0955488
-0.144761 -0.029846 -0.0923179
-0.144761 -0.0201269 -0.089087
-0.144761 -0.0104078 -0.0858561
-0.144761 -0.000688786 -0.0826252
-0.144761 0.00903028 -0.0793943
-0.144761 0.0187493 -0.0761634
-0.144761 0.0284684 -0.0729325
-0.144761 0.0381875 -0.0697016
-0.144761 0.0479065 -0.0664707
-0.144761 0.0576256 -0.0632398
-0.144761 0.0673446 -0.0600089
-0.144761 0.0770637 -0.056778
-0.144761 0.0867828 -0.0535471
-0.144761 0.0965018 -0.0503162
-0.144761 0.106221 -0.0470853
-0.144761 0.11594 -0.0438544
-0.144761 0.125659 -0.0406234
-0.144761 0.135378 -0.0373925
-0.144761 0.145097 -0.0341616
-0.144761 0.154816 -0.0309307
-0.144761 0.164535 -0.0276998
-0.144761 0.174254 -0.0244689
-0.144761 0.183973 -0.021238
-0.144761 0.193692 -0.0180071
-0.144761 0.203412 -0.0147762
-0.144761 0.213131 -0.0115453
-0.144761 0.22285 -0.00831441
-0.144761 0.232569 -0.00508351
-0.144761 0.242288 -0.0018526
-0.127981 -0.233946 -0.150616
-0.127981 -0.224227 -0.147385
-0.127981 -0.214508 -0.144154
-0.127981 -0.204789 -0.140923
-0.127981 -0.19507 -0.137692
-0.127981 -0.185351 -0.134461
-0.127981 -0.175632 -0.13123
-0.127981 -0.165913 -0.127999
-0.127981 -0.156194 -0.124768
-0.127981 -0.146475 -0.121537
-0.127981 -0.136756 -0.118307
-0.127981 -0.127037 -0.115076
-0.127981 -0.117318 -0.111845
-0.127981 -0.107598 -0.108614
-0.127981 -0.0978794 -0.105383
-0.127981 -0.0881603 -0.102152
-0.127981 -0.0784413 -0.0989211
-0.127981 -0.0687222 -0.0956902
-0.127981 -0.0590032 -0.0924593
-0.127981 -0.0492841 -0.0892284
-0.127981 -0.039565 -0.0859975
-0.127981 -0.029846 -0.0827666
-0.127981 -0.0201269 -0.0795357
-0.127981 -0.0104078 -0.0763048
-0.127981 -0.000688786 -0.0730739
-0.127981 0.00903028 -0.069843
-0.127981 0.0187493 -0.0666121
-0.127981 0.0284684 -0.0633812
-0.127981 0.0381875 -0.0601503
-0.127981 0.0479065 -0.0569194
-0.127981 0.0576256 -0.0536885
-0.127981 0.0673446 -0.0504576
-0.127981 0.0770637 -0.0472267
-0.127981 0.0867828 -0.0439957
-0.127981 0.0965018 -0.0407648
-0.127981 0.106221 -0.0375339
-0.127981 0.11594 -0.034303
-0.127981 0.125659 -0.0310721
-0.127981 0.135378 -0.0278412
-0.127981 0.145097 -0.0246103
-0.127981 0.154816 -0.0213794
-0.127981 0.164535 -0.0181485
-0.127981 0.174254 -0.0149176
-0.127981 0.183973 -0.0116867
-0.127981 0.193692 -0.00845581
-0.127981 0.203412 -0.00522491
-0.127981 0.213131 -0.001994
-0.127981 0.22285 0.0012369
-0.127981 0.232569 0.00446781
-0.127981 0.242288 0.00769871
-0.1112 -0.233946 -0.141064
-0.1112 -0.224227 -0.137833
-0.1112 -0.214508 -0.134602
-0.1112 -0.204789 -0.131372
-0.1112 -0.19507 -0.128141
-0.1112 -0.185351 -0.12491
-0.1112 -0.175632 -0.121679
-0.1112 -0.165913 -0.118448
-0.1112 -0.156194 -0.115217
-0.1112 -0.146475 -0.111986
-0.1112 -0.136756 -0.108755
-0.1112 -0.127037 -0.105524
-0.1112 -0.117318 -0.102293
-0.1112 -0.107598 -0.0990625
-0.1112 -0.0978794 -0.0958316
-0.1112 -0.0881603 -0.0926007
-0.1112 -0.0784413 -0.0893698
-0.1112 -0.0687222 -0.0861389
-0.1112 -0.0590032 -0.082908
-0.1112 -0.0492841 -0.0796771
-0.1112 -0.039565 -0.0764462
-0.1112 -0.029846 -0.0732153
-0.1112 -0.0201269 -0.0699844
-0.1112 -0.0104078 -0.0667535
-0.1112 -0.000688786 -0.0635226
-0.1112 0.00903028 -0.0602917
-0.1112 0.0187493 -0.0570608
-0.1112 0.0284684 -0.0538299
-0.1112 0.0381875 -0.050599
-0.1112 0.0479065 -0.047368
-0.1112 0.0576256 -0.0441371
-0.1112 0.0673446 -0.0409062
-0.1112 0.0770637 -0.0376753
-0.1112 0.0867828 -0.0344444
-0.1112 0.0965018 -0.0312135
-0.1112 0.106221 -0.0279826
-0.1112 0.11594 -0.0247517
-0.1112 0.125659 -0.0215208
-0.1112 0.135378 -0.0182899
-0.1112 0.145097 -0.015059
-0.1112 0.154816 -0.0118281
-0.1112 0.164535 -0.00859721
-0.1112 0.174254 -0.0053663
-0.1112 0.183973 -0.0021354
-0.1112 0.193692 0.0010955
-0.1112 0.203412 0.00432641
-0.1112 0.213131 0.00755731
-0.1112 0.22285 0.0107882
-0.1112 0.232569 0.0140191
-0.1112 0.242288 0.01725
-0.0944195 -0.233946 -0.131513
-0.0944195 -0.224227 -0.128282
-0.0944195 -0.214508 -0.125051
-0.0944195 -0.204789 -0.12182
-0.0944195 -0.19507 -0.118589
-0.0944195 -0.185351 -0.115358
-0.0944195 -0.175632 -0.112128
-0.0944195 -0.165913 -0.108897
-0.0944195 -0.156194 -0.105666
-0.0944195 -0.146475 -0.102435
-0.0944195 -0.136756 -0.0992039
-0.0944195 -0.127037 -0.095973
-0.0944195 -0.117318 -0.0927421
-0.0944195 -0.107598 -0.0895112
-0.0944195 -0.0978794 -0.0862803
-0.0944195 -0.0881603 -0.0830494
-0.0944195 -0.0784413 -0.0798185
-0.0944195 -0.0687222 -0.0765876
-0.0944195 -0.0590032 -0.0733567
-0.0944195 -0.0492841 -0.0701258
-0.0944195 -0.039565 -0.0668949
-0.0944195 -0.029846 -0.063664
-0.0944195 -0.0201269 -0.0604331
-0.0944195 -0.0104078 -0.0572022
-0.0944195 -0.000688786 -0.0539713
-0.0944195 0.00903028 -0.0507403
-0.0944195 0.0187493 -0.0475094
-0.0944195 0.0284684 -0.0442785
-0.0944195 0.0381875 -0.0410476
-0.0944195 0.0479065 -0.0378167
-0.0944195 0.0576256 -0.0345858
-0.0944195 0.0673446 -0.0313549
-0.0944195 0.0770637 -0.028124
-0.0944195 0.0867828 -0.0248931
-0.0944195 0.0965018 -0.0216622
-0.0944195 0.106221 -0.0184313
-0.0944195 0.11594 -0.0152004
-0.0944195 0.125659 -0.0119695
-0.0944195 0.135378 -0.0087386
-0.0944195 0.145097 -0.0055077
-0.0944195 0.154816 -0.0022768
-0.0944195 0.164535 0.000954107
-0.0944195 0.174254 0.00418501
-0.0944195 0.183973 0.00741591
-0.0944195 0.193692 0.0106468
-0.0944195 0.203412 0.0138777
-0.0944195 0.213131 0.0171086
-0.0944195 0.22285 0.0203395
-0.0944195 0.232569 0.0235704
-0.0944195 0.242288 0.0268013
-0.0776388 -0.233946 -0.121962
-0.0776388 -0.224227 -0.118731
-0.0776388 -0.214508 -0.1155
-0.0776388 -0.204789 -0.112269
-0.0776388 -0.19507 -0.109038
-0.0776388 -0.185351 -0.105807
-0.0776388 -0.175632 -0.102576
-0.0776388 -0.165913 -0.0993453
-0.0776388 -0.156194 -0.0961144
-0.0776388 -0.146475 -0.0928835
-0.0776388 -0.136756 -0.0896526
-0.0776388 -0.127037 -0.0864217
-0.0776388 -0.117318 -0.0831908
-0.0776388 -0.107598 -0.0799599
-0.0776388 -0.0978794 -0.076729
-0.0776388 -0.0881603 -0.0734981
-0.0776388 -0.0784413 -0.0702672
-0.0776388 -0.0687222 -0.0670363
-0.0776388 -0.0590032 -0.0638054
-0.0776388 -0.0492841 -0.0605745
-0.0776388 -0.039565 -0.0573436
-0.0776388 -0.029846 -0.0541126
-0.0776388 -0.0201269 -0.0508817
-0.0776388 -0.0104078 -0.0476508
-0.0776388 -0.000688786 -0.0444199
-0.0776388 0.00903028 -0.041189
-0.0776388 0.0187493 -0.0379581
-0.0776388 0.0284684 -0.0347272
-0.0776388 0.0381875 -0.0314963
-0.0776388 0.0479065 -0.0282654
-0.0776388 0.0576256 -0.0250345
-0.0776388 0.0673446 -0.0218036
-0.0776388 0.0770637 -0.0185727
-0.0776388 0.0867828 -0.0153418
-0.0776388 0.0965018 -0.0121109
-0.0776388 0.106221 -0.00888
-0.0776388 0.11594 -0.0056491
-0.0776388 0.125659 -0.00241819
-0.0776388 0.135378 0.00081271
-0.0776388 0.145097 0.00404361
-0.0776388 0.154816 0.00727452
-0.0776388 0.164535 0.0105054
-0.0776388 0.174254 0.0137363
-0.0776388 0.183973 0.0169672
-0.0776388 0.193692 0.0201981
-0.0776388 0.203412 0.023429
-0.0776388 0.213131 0.0266599
-0.0776388 0.22285 0.0298908
-0.0776388 0.232569 0.0331217
-0.0776388 0.242288 0.0363526
-0.0608582 -0.233946 -0.11241
-0.0608582 -0.224227 -0.109179
-0.0608582 -0.214508 -0.105949
-0.0608582 -0.204789 -0.102718
-0.0608582 -0.19507 -0.0994867
-0.0608582 -0.185351 -0.0962558
-0.0608582 -0.175632 -0.0930249
-0.0608582 -0.165913 -0.089794
-0.0608582 -0.156194 -0.0865631
-0.0608582 -0.146475 -0.0833322
-0.0608582 -0.136756 -0.0801013
-0.0608582 -0.127037 -0.0768704
-0.0608582 -0.117318 -0.0736395
-0.0608582 -0.107598 -0.0704086
-0.0608582 -0.0978794 -0.0671777
-0.0608582 -0.0881603 -0.0639468
-0.0608582 -0.0784413 -0.0607159
-0.0608582 -0.0687222 -0.057485
-0.0608582 -0.0590032 -0.054254
-0.0608582 -0.0492841 -0.0510231
-0.0608582 -0.039565 -0.0477922
-0.0608582 -0.029846 -0.0445613
-0.0608582 -0.0201269 -0.0413304
-0.0608582 -0.0104078 -0.0380995
-0.0608582 -0.000688786 -0.0348686
-0.0608582 0.00903028 -0.0316377
-0.0608582 0.0187493 -0.0284068
-0.0608582 0.0284684 -0.0251759
-0.0608582 0.0381875 -0.021945
-0.0608582 0.0479065 -0.0187141
-0.0608582 0.0576256 -0.0154832
-0.0608582 0.0673446 -0.0122523
-0.0608582 0.0770637 -0.0090214
-0.0608582 0.0867828 -0.00579049
-0.0608582 0.0965018 -0.00255959
-0.0608582 0.106221 0.000671313
-0.0608582 0.11594 0.00390222
-0.0608582 0.125659 0.00713312
-0.0608582 0.135378 0.010364
-0.0608582 0.145097 0.0135949
-0.0608582 0.154816 0.0168258
-0.0608582 0.164535 0.0200567
-0.0608582 0.174254 0.0232876
-0.0608582 0.183973 0.0265185
-0.0608582 0.193692 0.0297494
-0.0608582 0.203412 0.0329803
-0.0608582 0.213131 0.0362113
-0.0608582 0.22285 0.0394422
-0.0608582 0.232569 0.0426731
-0.0608582 0.242288 0.045904
-0.0440775 -0.233946 -0.102859
-0.0440775 -0.224227 -0.0996281
-0.0440775 -0.214508 -0.0963972
-0.0440775 -0.204789 -0.0931663
-0.0440775 -0.19507 -0.0899354
-0.0440775 -0.185351 -0.0867045
-0.0440775 -0.175632 -0.0834736
-0.0440775 -0.165913 -0.0802427
-0.0440775 -0.156194 -0.0770118
-0.0440775 -0.146475 -0.0737809
-0.0440775 -0.136756 -0.07055
-0.0440775 -0.127037 -0.0673191
-0.0440775 -0.117318 -0.0640882
-0.0440775 -0.107598 -0.0608573
-0.0440775 -0.0978794 -0.0576263
-0.0440775 -0.0881603 -0.0543954
-0.0440775 -0.0784413 -0.0511645
-0.0440775 -0.0687222 -0.0479336
-0.0440775 -0.0590032 -0.0447027
-0.0440775 -0.0492841 -0.0414718
-0.0440775 -0.039565 -0.0382409
-0.0440775 -0.029846 -0.03501
-0.0440775 -0.0201269 -0.0317791
-0.0440775 -0.0104078 -0.0285482
-0.0440775 -0.000688786 -0.0253173
-0.0440775 0.00903028 -0.0220864
-0.0440775 0.0187493 -0.0188555
-0.0440775 0.0284684 -0.0156246
-0.0440775 0.0381875 -0.0123937
-0.0440775 0.0479065 -0.00916279
-0.0440775 0.0576256 -0.00593189
-0.0440775 0.0673446 -0.00270099
-0.0440775 0.0770637 0.000529916
-0.0440775 0.0867828 0.00376082
-0.0440775 0.0965018 0.00699172
-0.0440775 0.106221 0.0102226
-0.0440775 0.11594 0.0134535
-0.0440775 0.125659 0.0166844
-0.0440775 0.135378 0.0199153
-0.0440775 0.145097 0.0231462
-0.0440775 0.154816 0.0263771
-0.0440775 0.164535 0.029608
-0.0440775 0.174254 0.032839
-0.0440775 0.183973 0.0360699
-0.0440775 0.193692 0.0393008
-0.0440775 0.203412 0.0425317
-0.0440775 0.213131 0.0457626
-0.0440775 0.22285 0.0489935
-0.0440775 0.232569 0.0522244
-0.0440775 0.242288 0.0554553
-0.0272969 -0.233946 -0.0933077
-0.0272969 -0.224227 -0.0900768
-0.0272969 -0.214508 -0.0868459
-0.0272969 -0.204789 -0.083615
-0.0272969 -0.19507 -0.0803841
-0.0272969 -0.185351 -0.0771532
-0.0272969 -0.175632 -0.0739223
-0.0272969 -0.165913 -0.0706914
-0.0272969 -0.156194 -0.0674605
-0.0272969 -0.146475 -0.0642296
-0.0272969 -0.136756 -0.0609986
-0.0272969 -0.127037 -0.0577677
-0.0272969 -0.117318 -0.0545368
-0.0272969 -0.107598 -0.0513059
-0.0272969 -0.0978794 -0.048075
-0.0272969 -0.0881603 -0.0448441
-0.0272969 -0.0784413 -0.0416132
-0.0272969 -0.0687222 -0.0383823
-0.0272969 -0.0590032 -0.0351514
-0.0272969 -0.0492841 -0.0319205
-0.0272969 -0.039565 -0.0286896
-0.0272969 -0.029846 -0.0254587
-0.0272969 -0.0201269 -0.0222278
-0.0272969 -0.0104078 -0.0189969
-0.0272969 -0.000688786 -0.015766
-0.0272969 0.00903028 -0.0125351
-0.0272969 0.0187493 -0.00930419
-0.0272969 0.0284684 -0.00607329
-0.0272969 0.0381875 -0.00284238
-0.0272969 0.0479065 0.000388519
-0.0272969 0.0576256 0.00361942
-0.0272969 0.0673446 0.00685033
-0.0272969 0.0770637 0.0100812
-0.0272969 0.0867828 0.0133121
-0.0272969 0.0965018 0.016543
-0.0272969 0.106221 0.0197739
-0.0272969 0.11594 0.0230048
-0.0272969 0.125659 0.0262357
-0.0272969 0.135378 0.0294667
-0.0272969 0.145097 0.0326976
-0.0272969 0.154816 0.0359285
-0.0272969 0.164535 0.0391594
-0.0272969 0.174254 0.0423903
-0.0272969 0.183973 0.0456212
-0.0272969 0.193692 0.0488521
-0.0272969 0.203412 0.052083
-0.0272969 0.213131 0.0553139
-0.0272969 0.22285 0.0585448
-0.0272969 0.232569 0.0617757
-0.0272969 0.242288 0.0650066
-0.0105163 -0.233946 -0.0837564
-0.0105163 -0.224227 -0.0805255
-0.0105163 -0.214508 -0.0772946
-0.0105163 -0.204789 -0.0740637
-0.0105163 -0.19507 -0.0708328
-0.0105163 -0.185351 -0.0676019
-0.0105163 -0.175632 -0.0643709
-0.0105163 -0.165913 -0.06114
-0.0105163 -0.156194 -0.0579091
-0.0105163 -0.146475 -0.0546782
-0.0105163 -0.136756 -0.0514473
-0.0105163 -0.127037 -0.0482164
-0.0105163 -0.117318 -0.0449855
-0.0105163 -0.107598 -0.0417546
-0.0105163 -0.0978794 -0.0385237
-0.0105163 -0.0881603 -0.0352928
-0.0105163 -0.0784413 -0.0320619
-0.0105163 -0.0687222 -0.028831
-0.0105163 -0.0590032 -0.0256001
-0.0105163 -0.0492841 -0.0223692
-0.0105163 -0.039565 -0.0191383
-0.0105163 -0.029846 -0.0159074
-0.0105163 -0.0201269 -0.0126765
-0.0105163 -0.0104078 -0.00944559
-0.0105163 -0.000688786 -0.00621469
-0.0105163 0.00903028 -0.00298378
-0.0105163 0.0187493 0.000247121
-0.0105163 0.0284684 0.00347802
-0.0105163 0.0381875 0.00670893
-0.0105163 0.0479065 0.00993983
-0.0105163 0.0576256 0.0131707
-0.0105163 0.0673446 0.0164016
-0.0105163 0.0770637 0.0196325
-0.0105163 0.0867828 0.0228634
-0.0105163 0.0965018 0.0260943
-0.0105163 0.106221 0.0293253
-0.0105163 0.11594 0.0325562
-0.0105163 0.125659 0.0357871
-0.0105163 0.135378 0.039018
-0.0105163 0.145097 0.0422489
-0.0105163 0.154816 0.0454798
-0.0105163 0.164535 0.0487107
-0.0105163 0.174254 0.0519416
-0.0105163 0.183973 0.0551725
-0.0105163 0.193692 0.0584034
-0.0105163 0.203412 0.0616343
-0.0105163 0.213131 0.0648652
-0.0105163 0.22285 0.0680961
-0.0105163 0.232569 0.071327
-0.0105163 0.242288 0.0745579
0.00626438 -0.233946 -0.0742051
0.00626438 -0.224227 -0.0709742
0.00626438 -0.214508 -0.0677432
0.00626438 -0.204789 -0.0645123
0.00626438 -0.19507 -0.0612814
0.00626438 -0.185351 -0.0580505
0.00626438 -0.175632 -0.0548196
0.00626438 -0.165913 -0.0515887
0.00626438 -0.156194 -0.0483578
0.00626438 -0.146475 -0.0451269
0.00626438 -0.136756 -0.041896
0.00626438 -0.127037 -0.0386651
0.00626438 -0.117318 -0.0354342
0.00626438 -0.107598 -0.0322033
0.00626438 -0.0978794 -0.0289724
0.00626438 -0.0881603 -0.0257415
0.00626438 -0.0784413 -0.0225106
0.00626438 -0.0687222 -0.0192797
0.00626438 -0.0590032 -0.0160488
0.00626438 -0.0492841 -0.0128179
0.00626438 -0.039565 -0.00958699
0.00626438 -0.029846 -0.00635608
0.00626438 -0.0201269 -0.00312518
0.00626438 -0.0104078 0.000105724
0.00626438 -0.000688786 0.00333663
0.00626438 0.00903028 0.00656753
0.00626438 0.0187493 0.00979843
0.00626438 0.0284684 0.0130293
0.00626438 0.0381875 0.0162602
0.00626438 0.0479065 0.0194911
0.00626438 0.0576256 0.022722
0.00626438 0.0673446 0.025953
0.00626438 0.0770637 0.0291839
0.00626438 0.0867828 0.0324148
0.00626438 0.0965018 0.0356457
0.00626438 0.106221 0.0388766
0.00626438 0.11594 0.0421075
0.00626438 0.125659 0.0453384
0.00626438 0.135378 0.0485693
0.00626438 0.145097 0.0518002
0.00626438 0.154816 0.0550311
0.00626438 0.164535 0.058262
0.00626438 0.174254 0.0614929
0.00626438 0.183973 0.0647238
0.00626438 0.193692 0.0679547
0.00626438 0.203412 0.0711856
0.00626438 0.213131 0.0744165
0.00626438 0.22285 0.0776474
0.00626438 0.232569 0.0808783
0.00626438 0.242288 0.0841092
0.023045 -0.233946 -0.0646537
0.023045 -0.224227 -0.0614228
0.023045 -0.214508 -0.0581919
0.023045 -0.204789 -0.054961
0.023045 -0.19507 -0.0517301
0.023045 -0.185351 -0.0484992
0.023045 -0.175632 -0.0452683
0.023045 -0.165913 -0.0420374
0.023045 -0.156194 -0.0388065
0.023045 -0.146475 -0.0355756
0.023045 -0.136756 -0.0323447
0.023045 -0.127037 -0.0291138
0.023045 -0.117318 -0.0258829
0.023045 -0.107598 -0.022652
0.023045 -0.0978794 -0.0194211
0.023045 -0.0881603 -0.0161902
0.023045 -0.0784413 -0.0129593
0.023045 -0.0687222 -0.00972838
0.023045 -0.0590032 -0.00649748
0.023045 -0.0492841 -0.00326658
0.023045 -0.039565 -3.56731e-05
0.023045 -0.029846 0.00319523
0.023045 -0.0201269 0.00642613
0.023045 -0.0104078 0.00965704
0.023045 -0.000688786 0.0128879
0.023045 0.00903028 0.0161188
0.023045 0.0187493 0.0193497
0.023045 0.0284684 0.0225807
0.023045 0.0381875 0.0258116
0.023045 0.0479065 0.0290425
0.023045 0.0576256 0.0322734
0.023045 0.0673446 0.0355043
0.023045 0.0770637 0.0387352
0.023045 0.0867828 0.0419661
0.023045 0.0965018 0.045197
0.023045 0.106221 0.0484279
0.023045 0.11594 0.0516588
0.023045 0.125659 0.0548897
0.023045 0.135378 0.0581206
0.023045 0.145097 0.0613515
0.023045 0.154816 0.0645824
0.023045 0.164535 0.0678133
0.023045 0.174254 0.0710442
0.023045 0.183973 0.0742751
0.023045 0.193692 0.077506
0.023045 0.203412 0.0807369
0.023045 0.213131 0.0839678
0.023045 0.22285 0.0871987
0.023045 0.232569 0.0904296
0.023045 0.242288 0.0936605
0.0398257 -0.233946 -0.0551024
0.0398257 -0.224227 -0.0518715
0.0398257 -0.214508 -0.0486406
0.0398257 -0.204789 -0.0454097
0.0398257 -0.19507 -0.0421788
0.0398257 -0.185351 -0.0389479
0.0398257 -0.175632 -0.035717
0.0398257 -0.165913 -0.0324861
0.0398257 -0.156194 -0.0292552
0.0398257 -0.146475 -0.0260243
0.0398257 -0.136756 -0.0227934
0.0398257 -0.127037 -0.0195625
0.0398257 -0.117318 -0.0163316
0.0398257 -0.107598 -0.0131007
0.0398257 -0.0978794 -0.00986978
0.0398257 -0.0881603 -0.00663888
0.0398257 -0.0784413 -0.00340797
0.0398257 -0.0687222 -0.00017707
0.0398257 -0.0590032 0.00305383
0.0398257 -0.0492841 0.00628474
0.0398257 -0.039565 0.00951564
0.0398257 -0.029846 0.0127465
0.0398257 -0.0201269 0.0159774
0.0398257 -0.0104078 0.0192084
0.0398257 -0.000688786 0.0224393
0.0398257 0.00903028 0.0256702
0.0398257 0.0187493 0.0289011
0.0398257 0.0284684 0.032132
0.0398257 0.0381875 0.0353629
0.0398257 0.0479065 0.0385938
0.0398257 0.0576256 0.0418247
0.0398257 0.0673446 0.0450556
0.0398257 0.0770637 0.0482865
0.0398257 0.0867828 0.0515174
0.0398257 0.0965018 0.0547483
0.0398257 0.106221 0.0579792
0.0398257 0.11594 0.0612101
0.0398257 0.125659 0.064441
0.0398257 0.135378 0.0676719
0.0398257 0.145097 0.0709028
0.0398257 0.154816 0.0741337
0.0398257 0.164535 0.0773646
0.0398257 0.174254 0.0805955
0.0398257 0.183973 0.0838264
0.0398257 0.193692 0.0870573
0.0398257 0.203412 0.0902882
0.0398257 0.213131 0.0935191
0.0398257 0.22285 0.09675
0.0398257 0.232569 0.0999809
0.0398257 0.242288 0.103212
0.0566063 -0.233946 -0.0455511
0.0566063 -0.224227 -0.0423202
0.0566063 -0.214508 -0.0390893
0.0566063 -0.204789 -0.0358584
0.0566063 -0.19507 -0.0326275
0.0566063 -0.185351 -0.0293966
0.0566063 -0.175632 -0.0261657
0.0566063 -0.165913 -0.0229348
0.0566063 -0.156194 -0.0197039
0.0566063 -0.146475 -0.016473
0.0566063 -0.136756 -0.0132421
0.0566063 -0.127037 -0.0100112
0.0566063 -0.117318 -0.00678027
0.0566063 -0.107598 -0.00354937
0.0566063 -0.0978794 -0.000318468
0.0566063 -0.0881603 0.00291244
0.0566063 -0.0784413 0.00614334
0.0566063 -0.0687222 0.00937424
0.0566063 -0.0590032 0.0126051
0.0566063 -0.0492841 0.0158361
0.0566063 -0.039565 0.019067
0.0566063 -0.029846 0.0222979
0.0566063 -0.0201269 0.0255288
0.0566063 -0.0104078 0.0287597
0.0566063 -0.000688786 0.0319906
0.0566063 0.00903028 0.0352215
0.0566063 0.0187493 0.0384524
0.0566063 0.0284684 0.0416833
0.0566063 0.0381875 0.0449142
0.0566063 0.0479065 0.0481451
0.0566063 0.0576256 0.051376
0.0566063 0.0673446 0.0546069
0.0566063 0.0770637 0.0578378
0.0566063 0.0867828 0.0610687
0.0566063 0.0965018 0.0642996
0.0566063 0.106221 0.0675305
0.0566063 0.11594 0.0707614
0.0566063 0.125659 0.0739923
0.0566063 0.135378 0.0772232
0.0566063 0.145097 0.0804541
0.0566063 0.154816 0.083685
0.0566063 0.164535 0.0869159
0.0566063 0.174254 0.0901468
0.0566063 0.183973 0.0933777
0.0566063 0.193692 0.0966086
0.0566063 0.203412 0.0998395
0.0566063 0.213131 0.10307
0.0566063 0.22285 0.106301
0.0566063 0.232569 0.109532
0.0566063 0.242288 0.112763
0.0733869 -0.233946 -0.0359998
0.0733869 -0.224227 -0.0327689
0.0733869 -0.214508 -0.029538
0.0733869 -0.204789 -0.0263071
0.0733869 -0.19507 -0.0230762
0.0733869 -0.185351 -0.0198453
0.0733869 -0.175632 -0.0166144
0.0733869 -0.165913 -0.0133835
0.0733869 -0.156194 -0.0101526
0.0733869 -0.146475 -0.00692167
0.0733869 -0.136756 -0.00369077
0.0733869 -0.127037 -0.000459865
0.0733869 -0.117318 0.00277104
0.0733869 -0.107598 0.00600194
0.0733869 -0.0978794 0.00923285
0.0733869 -0.0881603 0.0124637
0.0733869 -0.0784413 0.0156947
0.0733869 -0.0687222 0.0189256
0.0733869 -0.0590032 0.0221565
0.0733869 -0.0492841 0.0253874
0.0733869 -0.039565 0.0286183
0.0733869 -0.029846 0.0318492
0.0733869 -0.0201269 0.0350801
0.0733869 -0.0104078 0.038311
0.0733869 -0.000688786 0.0415419
0.0733869 0.00903028 0.0447728
0.0733869 0.0187493 0.0480037
0.0733869 0.0284684 0.0512346
0.0733869 0.0381875 0.0544655
0.0733869 0.0479065 0.0576964
0.0733869 0.0576256 0.0609273
0.0733869 0.0673446 0.0641582
0.0733869 0.0770637 0.0673891
0.0733869 0.0867828 0.07062
0.0733869 0.0965018 0.0738509
0.0733869 0.106221 0.0770818
0.0733869 0.11594 0.0803127
0.0733869 0.125659 0.0835436
0.0733869 0.135378 0.0867745
0.0733869 0.145097 0.0900054
0.0733869 0.154816 0.0932363
0.0733869 0.164535 0.0964672
0.0733869 0.174254 0.0996981
0.0733869 0.183973 0.102929
0.0733869 0.193692 0.10616
0.0733869 0.203412 0.109391
0.0733869 0.213131 0.112622
0.0733869 0.22285 0.115853
0.0733869 0.232569 0.119084
0.0733869 0.242288 0.122314
0.0901676 -0.233946 -0.0264485
0.0901676 -0.224227 -0.0232176
0.0901676 -0.214508 -0.0199867
0.0901676 -0.204789 -0.0167558
0.0901676 -0.19507 -0.0135249
0.0901676 -0.185351 -0.010294
0.0901676 -0.175632 -0.00706307
0.0901676 -0.165913 -0.00383217
0.0901676 -0.156194 -0.000601262
0.0901676 -0.146475 0.00262964
0.0901676 -0.136756 0.00586055
0.0901676 -0.127037 0.00909145
0.0901676 -0.117318 0.0123224
0.0901676 -0.107598 0.0155533
0.0901676 -0.0978794 0.0187842
0.0901676 -0.0881603 0.0220151
0.0901676 -0.0784413 0.025246
0.0901676 -0.0687222 0.0284769
0.0901676 -0.0590032 0.0317078
0.0901676 -0.0492841 0.0349387
0.0901676 -0.039565 0.0381696
0.0901676 -0.029846 0.0414005
0.0901676 -0.0201269 0.0446314
0.0901676 -0.0104078 0.0478623
0.0901676 -0.000688786 0.0510932
0.0901676 0.00903028 0.0543241
0.0901676 0.0187493 0.057555
0.0901676 0.0284684 0.0607859
0.0901676 0.0381875 0.0640168
0.0901676 0.0479065 0.0672477
0.0901676 0.0576256 0.0704786
0.0901676 0.0673446 0.0737095
0.0901676 0.0770637 0.0769404
0.0901676 0.0867828 0.0801713
0.0901676 0.0965018 0.0834022
0.0901676 0.106221 0.0866331
0.0901676 0.11594 0.089864
0.0901676 0.125659 0.0930949
0.0901676 0.135378 0.0963258
0.0901676 0.145097 0.0995567
0.0901676 0.154816 0.102788
0.0901676 0.164535 0.106019
0.0901676 0.174254 0.109249
0.0901676 0.183973 0.11248
0.0901676 0.193692 0.115711
0.0901676 0.203412 0.118942
0.0901676 0.213131 0.122173
0.0901676 0.22285 0.125404
0.0901676 0.232569 0.128635
0.0901676 0.242288 0.131866
0.106948 -0.233946 -0.0168972
0.106948 -0.224227 -0.0136663
0.106948 -0.214508 -0.0104354
0.106948 -0.204789 -0.00720447
0.106948 -0.19507 -0.00397356
0.106948 -0.185351 -0.000742659
0.106948 -0.175632 0.00248824
0.106948 -0.165913 0.00571915
0.106948 -0.156194 0.00895005
0.106948 -0.146475 0.012181
0.106948 -0.136756 0.0154119
0.106948 -0.127037 0.0186428
0.106948 -0.117318 0.0218737
0.106948 -0.107598 0.0251046
0.106948 -0.0978794 0.0283355
0.106948 -0.0881603 0.0315664
0.106948 -0.0784413 0.0347973
0.106948 -0.0687222 0.0380282
0.106948 -0.0590032 0.0412591
0.106948 -0.0492841 0.04449
0.106948 -0.039565 0.0477209
0.106948 -0.029846 0.0509518
0.106948 -0.0201269 0.0541827
0.106948 -0.0104078 0.0574136
0.106948 -0.000688786 0.0606445
0.106948 0.00903028 0.0638754
0.106948 0.0187493 0.0671063
0.106948 0.0284684 0.0703372
0.106948 0.0381875 0.0735681
0.106948 0.0479065 0.076799
0.106948 0.0576256 0.0800299
0.106948 0.0673446 0.0832608
0.106948 0.0770637 0.0864917
0.106948 0.0867828 0.0897226
0.106948 0.0965018 0.0929535
0.106948 0.106221 0.0961844
0.106948 0.11594 0.0994153
0.106948 0.125659 0.102646
0.106948 0.135378 0.105877
0.106948 0.145097 0.109108
0.106948 0.154816 0.112339
0.106948 0.164535 0.11557
0.106948 0.174254 0.118801
0.106948 0.183973 0.122032
0.106948 0.193692 0.125263
0.106948 0.203412 0.128493
0.106948 0.213131 0.131724
0.106948 0.22285 0.134955
0.106948 0.232569 0.138186
0.106948 0.242288 0.141417
0.123729 -0.233946 -0.00734586
0.123729 -0.224227 -0.00411496
0.123729 -0.214508 -0.000884056
0.123729 -0.204789 0.00234685
0.123729 -0.19507 0.00557775
0.123729 -0.185351 0.00880865
0.123729 -0.175632 0.0120396
0.123729 -0.165913 0.0152705
0.123729 -0.156194 0.0185014
0.123729 -0.146475 0.0217323
0.123729 -0.136756 0.0249632
0.123729 -0.127037 0.0281941
0.123729 -0.117318 0.031425
0.123729 -0.107598 0.0346559
0.123729 -0.0978794 0.0378868
0.123729 -0.0881603 0.0411177
0.123729 -0.0784413 0.0443486
0.123729 -0.0687222 0.0475795
0.123729 -0.0590032 0.0508104
0.123729 -0.0492841 0.0540413
0.123729 -0.039565 0.0572722
0.123729 -0.029846 0.0605031
0.123729 -0.0201269 0.063734
0.123729 -0.0104078 0.0669649
0.123729 -0.000688786 0.0701958
0.123729 0.00903028 0.0734267
0.123729 0.0187493 0.0766576
0.123729 0.0284684 0.0798885
0.123729 0.0381875 0.0831194
0.123729 0.0479065 0.0863503
0.123729 0.0576256 0.0895812
0.123729 0.0673446 0.0928121
0.123729 0.0770637 0.096043
0.123729 0.0867828 0.099274
0.123729 0.0965018 0.102505
0.123729 0.106221 0.105736
0.123729 0.11594 0.108967
0.123729 0.125659 0.112198
0.123729 0.135378 0.115428
0.123729 0.145097 0.118659
0.123729 0.154816 0.12189
0.123729 0.164535 0.125121
0.123729 0.174254 0.128352
0.123729 0.183973 0.131583
0.123729 0.193692 0.134814
0.123729 0.203412 0.138045
0.123729 0.213131 0.141276
0.123729 0.22285 0.144507
0.123729 0.232569 0.147738
0.123729 0.242288 0.150968
0.140509 -0.233946 0.00220545
0.140509 -0.224227 0.00543635
0.140509 -0.214508 0.00866726
0.140509 -0.204789 0.0118982
0.140509 -0.19507 0.0151291
0.140509 -0.185351 0.01836
0.140509 -0.175632 0.0215909
0.140509 -0.165913 0.0248218
0.140509 -0.156194 0.0280527
0.140509 -0.146475 0.0312836
0.140509 -0.136756 0.0345145
0.140509 -0.127037 0.0377454
0.140509 -0.117318 0.0409763
0.140509 -0.107598 0.0442072
0.140509 -0.0978794 0.0474381
0.140509 -0.0881603 0.050669
0.140509 -0.0784413 0.0538999
0.140509 -0.0687222 0.0571308
0.140509 -0.0590032 0.0603617
0.140509 -0.0492841 0.0635926
0.140509 -0.039565 0.0668235
0.140509 -0.029846 0.0700544
0.140509 -0.0201269 0.0732853
0.140509 -0.0104078 0.0765162
0.140509 -0.000688786 0.0797471
0.140509 0.00903028 0.082978
0.140509 0.0187493 0.0862089
0.140509 0.0284684 0.0894398
0.140509 0.0381875 0.0926707
0.140509 0.0479065 0.0959017
0.140509 0.0576256 0.0991326
0.140509 0.0673446 0.102363
0.140509 0.0770637 0.105594
0.140509 0.0867828 0.108825
0.140509 0.0965018 0.112056
0.140509 0.106221 0.115287
