-0.161542 -0.0881603 -0.0900182
-0.144761 -0.0881603 -0.0799114
-0.127981 -0.0881603 -0.0698047
-0.1112 -0.0881603 -0.0596979
-0.0944195 -0.0881603 -0.0495911
-0.0776388 -0.0881603 -0.0394843
-0.0608582 -0.0881603 -0.0293775
-0.0440775 -0.0881603 -0.0192707
-0.0272969 -0.0881603 -0.0091639
-0.0105163 -0.0881603 0.000942891
0.00626438 -0.0881603 0.0110497
0.023045 -0.0881603 0.0211565
0.0398257 -0.0881603 0.0312633
0.0566063 -0.0881603 0.0413701
0.0733869 -0.0881603 0.0514769
0.0901676 -0.0881603 0.0615836
0.106948 -0.0881603 0.0716904
0.123729 -0.0881603 0.0817972
0.140509 -0.0881603 0.091904
0.15729 -0.0881603 0.102011
0.174071 -0.0881603 0.112118
0.190851 -0.0881603 0.122224
0.207632 -0.0881603 0.132331
0.224413 -0.0881603 0.142438
0.241193 -0.0881603 0.152545
0.257974 -0.0881603 0.162652
0.274755 -0.0881603 0.172758
0.291535 -0.0881603 0.182865
0.308316 -0.0881603 0.192972
0.325097 -0.0881603 0.203079
0.341877 -0.0881603 0.213186
0.358658 -0.0881603 0.223292
0.375438 -0.0881603 0.233399
0.392219 -0.0881603 0.243506
0.409 -0.0881603 0.253613
-0.413252 -0.0784413 -0.238117
-0.396471 -0.0784413 -0.22801
-0.37969 -0.0784413 -0.217903
-0.36291 -0.0784413 -0.207796
-0.346129 -0.0784413 -0.19769
-0.329348 -0.0784413 -0.187583
-0.312568 -0.0784413 -0.177476
-0.295787 -0.0784413 -0.167369
-0.279006 -0.0784413 -0.157262
-0.262226 -0.0784413 -0.147156
-0.245445 -0.0784413 -0.137049
-0.228665 -0.0784413 -0.126942
-0.211884 -0.0784413 -0.116835
-0.195103 -0.0784413 -0.106729
-0.178323 -0.0784413 -0.0966217
-0.161542 -0.0784413 -0.0865149
-0.144761 -0.0784413 -0.0764081
-0.127981 -0.0784413 -0.0663013
-0.1112 -0.0784413 -0.0561945
-0.0944195 -0.0784413 -0.0460878
-0.0776388 -0.0784413 -0.035981
-0.0608582 -0.0784413 -0.0258742
-0.0440775 -0.0784413 -0.0157674
-0.0272969 -0.0784413 -0.00566058
-0.0105163 -0.0784413 0.00444621
0.00626438 -0.0784413 0.014553
0.023045 -0.0784413 0.0246598
0.0398257 -0.0784413 0.0347666
0.0566063 -0.0784413 0.0448734
0.0733869 -0.0784413 0.0549802
0.0901676 -0.0784413 0.065087
0.106948 -0.0784413 0.0751938
0.123729 -0.0784413 0.0853005
0.140509 -0.0784413 0.0954073
0.15729 -0.0784413 0.105514
0.174071 -0.0784413 0.115621
0.190851 -0.0784413 0.125728
0.207632 -0.0784413 0.135835
0.224413 -0.0784413 0.145941
0.241193 -0.0784413 0.156048
0.257974 -0.0784413 0.166155
0.274755 -0.0784413 0.176262
0.291535 -0.0784413 0.186368
0.308316 -0.0784413 0.196475
0.325097 -0.0784413 0.206582
0.341877 -0.0784413 0.216689
0.358658 -0.0784413 0.226796
0.375438 -0.0784413 0.236902
0.392219 -0.0784413 0.247009
0.409 -0.0784413 0.257116
-0.413252 -0.0687222 -0.234613
-0.396471 -0.0687222 -0.224507
-0.37969 -0.0687222 -0.2144
-0.36291 -0.0687222 -0.204293
-0.346129 -0.0687222 -0.194186
-0.329348 -0.0687222 -0.18408
-0.312568 -0.0687222 -0.173973
-0.295787 -0.0687222 -0.163866
-0.279006 -0.0687222 -0.153759
-0.262226 -0.0687222 -0.143652
-0.245445 -0.0687222 -0.133546
-0.228665 -0.0687222 -0.123439
-0.211884 -0.0687222 -0.113332
-0.195103 -0.0687222 -0.103225
-0.178323 -0.0687222 -0.0931184
-0.161542 -0.0687222 -0.0830116
-0.144761 -0.0687222 -0.0729048
-0.127981 -0.0687222 -0.062798
-0.1112 -0.0687222 -0.0526912
-0.0944195 -0.0687222 -0.0425844
-0.0776388 -0.0687222 -0.0324776
-0.0608582 -0.0687222 -0.0223709
-0.0440775 -0.0687222 -0.0122641
-0.0272969 -0.0687222 -0.00215727
-0.0105163 -0.0687222 0.00794953
0.00626438 -0.0687222 0.0180563
0.023045 -0.0687222 0.0281631
0.0398257 -0.0687222 0.0382699
0.0566063 -0.0687222 0.0483767
0.0733869 -0.0687222 0.0584835
0.0901676 -0.0687222 0.0685903
0.106948 -0.0687222 0.0786971
0.123729 -0.0687222 0.0888039
0.140509 -0.0687222 0.0989107
0.15729 -0.0687222 0.109017
0.174071 -0.0687222 0.119124
0.190851 -0.0687222 0.129231
0.207632 -0.0687222 0.139338
0.224413 -0.0687222 0.149445
0.241193 -0.0687222 0.159551
0.257974 -0.0687222 0.169658
0.274755 -0.0687222 0.179765
0.291535 -0.0687222 0.189872
0.308316 -0.0687222 0.199979
0.325097 -0.0687222 0.210085
0.341877 -0.0687222 0.220192
0.358658 -0.0687222 0.230299
0.375438 -0.0687222 0.240406
0.392219 -0.0687222 0.250513
0.409 -0.0687222 0.260619
-0.413252 -0.0590032 -0.23111
-0.396471 -0.0590032 -0.221003
-0.37969 -0.0590032 -0.210897
-0.36291 -0.0590032 -0.20079
-0.346129 -0.0590032 -0.190683
-0.329348 -0.0590032 -0.180576
-0.312568 -0.0590032 -0.170469
-0.295787 -0.0590032 -0.160363
-0.279006 -0.0590032 -0.150256
-0.262226 -0.0590032 -0.140149
-0.245445 -0.0590032 -0.130042
-0.228665 -0.0590032 -0.119935
-0.211884 -0.0590032 -0.109829
-0.195103 -0.0590032 -0.0997219
-0.178323 -0.0590032 -0.0896151
-0.161542 -0.0590032 -0.0795083
-0.144761 -0.0590032 -0.0694015
-0.127981 -0.0590032 -0.0592947
-0.1112 -0.0590032 -0.0491879
-0.0944195 -0.0590032 -0.0390811
-0.0776388 -0.0590032 -0.0289743
-0.0608582 -0.0590032 -0.0188675
-0.0440775 -0.0590032 -0.00876074
-0.0272969 -0.0590032 0.00134605
-0.0105163 -0.0590032 0.0114528
0.00626438 -0.0590032 0.0215596
0.023045 -0.0590032 0.0316664
0.0398257 -0.0590032 0.0417732
0.0566063 -0.0590032 0.05188
0.0733869 -0.0590032 0.0619868
0.0901676 -0.0590032 0.0720936
0.106948 -0.0590032 0.0822004
0.123729 -0.0590032 0.0923072
0.140509 -0.0590032 0.102414
0.15729 -0.0590032 0.112521
0.174071 -0.0590032 0.122628
0.190851 -0.0590032 0.132734
0.207632 -0.0590032 0.142841
0.224413 -0.0590032 0.152948
0.241193 -0.0590032 0.163055
0.257974 -0.0590032 0.173162
0.274755 -0.0590032 0.183268
0.291535 -0.0590032 0.193375
0.308316 -0.0590032 0.203482
0.325097 -0.0590032 0.213589
0.341877 -0.0590032 0.223695
0.358658 -0.0590032 0.233802
0.375438 -0.0590032 0.243909
0.392219 -0.0590032 0.254016
0.409 -0.0590032 0.264123
-0.413252 -0.0492841 -0.227607
-0.396471 -0.0492841 -0.2175
-0.37969 -0.0492841 -0.207393
-0.36291 -0.0492841 -0.197286
-0.346129 -0.0492841 -0.18718
-0.329348 -0.0492841 -0.177073
-0.312568 -0.0492841 -0.166966
-0.295787 -0.0492841 -0.156859
-0.279006 -0.0492841 -0.146753
-0.262226 -0.0492841 -0.136646
-0.245445 -0.0492841 -0.126539
-0.228665 -0.0492841 -0.116432
-0.211884 -0.0492841 -0.106325
-0.195103 -0.0492841 -0.0962186
-0.178323 -0.0492841 -0.0861118
-0.161542 -0.0492841 -0.076005
-0.144761 -0.0492841 -0.0658982
-0.127981 -0.0492841 -0.0557914
-0.1112 -0.0492841 -0.0456846
-0.0944195 -0.0492841 -0.0355778
-0.0776388 -0.0492841 -0.025471
-0.0608582 -0.0492841 -0.0153642
-0.0440775 -0.0492841 -0.00525742
-0.0272969 -0.0492841 0.00484937
-0.0105163 -0.0492841 0.0149562
0.00626438 -0.0492841 0.025063
0.023045 -0.0492841 0.0351697
0.0398257 -0.0492841 0.0452765
0.0566063 -0.0492841 0.0553833
0.0733869 -0.0492841 0.0654901
0.0901676 -0.0492841 0.0755969
0.106948 -0.0492841 0.0857037
0.123729 -0.0492841 0.0958105
0.140509 -0.0492841 0.105917
0.15729 -0.0492841 0.116024
0.174071 -0.0492841 0.126131
0.190851 -0.0492841 0.136238
0.207632 -0.0492841 0.146344
0.224413 -0.0492841 0.156451
0.241193 -0.0492841 0.166558
0.257974 -0.0492841 0.176665
0.274755 -0.0492841 0.186772
0.291535 -0.0492841 0.196878
0.308316 -0.0492841 0.206985
0.325097 -0.0492841 0.217092
0.341877 -0.0492841 0.227199
0.358658 -0.0492841 0.237306
0.375438 -0.0492841 0.247412
0.392219 -0.0492841 0.257519
0.409 -0.0492841 0.267626
-0.413252 -0.039565 -0.224104
-0.396471 -0.039565 -0.213997
-0.37969 -0.039565 -0.20389
-0.36291 -0.039565 -0.193783
-0.346129 -0.039565 -0.183676
-0.329348 -0.039565 -0.17357
-0.312568 -0.039565 -0.163463
-0.295787 -0.039565 -0.153356
-0.279006 -0.039565 -0.143249
-0.262226 -0.039565 -0.133142
-0.245445 -0.039565 -0.123036
-0.228665 -0.039565 -0.112929
-0.211884 -0.039565 -0.102822
-0.195103 -0.039565 -0.0927152
-0.178323 -0.039565 -0.0826084
-0.161542 -0.039565 -0.0725016
-0.144761 -0.039565 -0.0623949
-0.127981 -0.039565 -0.0522881
-0.1112 -0.039565 -0.0421813
-0.0944195 -0.039565 -0.0320745
-0.0776388 -0.039565 -0.0219677
-0.0608582 -0.039565 -0.0118609
-0.0440775 -0.039565 -0.00175411
-0.0272969 -0.039565 0.00835269
-0.0105163 -0.039565 0.0184595
0.00626438 -0.039565 0.0285663
0.023045 -0.039565 0.0386731
0.0398257 -0.039565 0.0487799
0.0566063 -0.039565 0.0588866
0.0733869 -0.039565 0.0689934
0.0901676 -0.039565 0.0791002
0.106948 -0.039565 0.089207
0.123729 -0.039565 0.0993138
0.140509 -0.039565 0.109421
0.15729 -0.039565 0.119527
0.174071 -0.039565 0.129634
0.190851 -0.039565 0.139741
0.207632 -0.039565 0.149848
0.224413 -0.039565 0.159955
0.241193 -0.039565 0.170061
0.257974 -0.039565 0.180168
0.274755 -0.039565 0.190275
0.291535 -0.039565 0.200382
0.308316 -0.039565 0.210489
0.325097 -0.039565 0.220595
0.341877 -0.039565 0.230702
0.358658 -0.039565 0.240809
0.375438 -0.039565 0.250916
0.392219 -0.039565 0.261022
0.409 -0.039565 0.271129
-0.413252 -0.029846 -0.2206
-0.396471 -0.029846 -0.210493
-0.37969 -0.029846 -0.200387
-0.36291 -0.029846 -0.19028
-0.346129 -0.029846 -0.180173
-0.329348 -0.029846 -0.170066
-0.312568 -0.029846 -0.159959
-0.295787 -0.029846 -0.149853
-0.279006 -0.029846 -0.139746
-0.262226 -0.029846 -0.129639
-0.245445 -0.029846 -0.119532
-0.228665 -0.029846 -0.109426
-0.211884 -0.029846 -0.0993187
-0.195103 -0.029846 -0.0892119
-0.178323 -0.029846 -0.0791051
-0.161542 -0.029846 -0.0689983
-0.144761 -0.029846 -0.0588915
-0.127981 -0.029846 -0.0487847
-0.1112 -0.029846 -0.038678
-0.0944195 -0.029846 -0.0285712
-0.0776388 -0.029846 -0.0184644
-0.0608582 -0.029846 -0.00835758
-0.0440775 -0.029846 0.00174921
-0.0272969 -0.029846 0.011856
-0.0105163 -0.029846 0.0219628
0.00626438 -0.029846 0.0320696
0.023045 -0.029846 0.0421764
0.0398257 -0.029846 0.0522832
0.0566063 -0.029846 0.06239
0.0733869 -0.029846 0.0724968
0.0901676 -0.029846 0.0826035
0.106948 -0.029846 0.0927103
0.123729 -0.029846 0.102817
0.140509 -0.029846 0.112924
0.15729 -0.029846 0.123031
0.174071 -0.029846 0.133138
0.190851 -0.029846 0.143244
0.207632 -0.029846 0.153351
0.224413 -0.029846 0.163458
0.241193 -0.029846 0.173565
0.257974 -0.029846 0.183671
0.274755 -0.029846 0.193778
0.291535 -0.029846 0.203885
0.308316 -0.029846 0.213992
0.325097 -0.029846 0.224099
0.341877 -0.029846 0.234205
0.358658 -0.029846 0.244312
0.375438 -0.029846 0.254419
0.392219 -0.029846 0.264526
0.409 -0.029846 0.274633
-0.413252 -0.0201269 -0.217097
-0.396471 -0.0201269 -0.20699
-0.37969 -0.0201269 -0.196883
-0.36291 -0.0201269 -0.186777
-0.346129 -0.0201269 -0.17667
-0.329348 -0.0201269 -0.166563
-0.312568 -0.0201269 -0.156456
-0.295787 -0.0201269 -0.146349
-0.279006 -0.0201269 -0.136243
-0.262226 -0.0201269 -0.126136
-0.245445 -0.0201269 -0.116029
-0.228665 -0.0201269 -0.105922
-0.211884 -0.0201269 -0.0958154
-0.195103 -0.0201269 -0.0857086
-0.178323 -0.0201269 -0.0756018
-0.161542 -0.0201269 -0.065495
-0.144761 -0.0201269 -0.0553882
-0.127981 -0.0201269 -0.0452814
-0.1112 -0.0201269 -0.0351746
-0.0944195 -0.0201269 -0.0250678
-0.0776388 -0.0201269 -0.0149611
-0.0608582 -0.0201269 -0.00485426
-0.0440775 -0.0201269 0.00525253
-0.0272969 -0.0201269 0.0153593
-0.0105163 -0.0201269 0.0254661
0.00626438 -0.0201269 0.0355729
0.023045 -0.0201269 0.0456797
0.0398257 -0.0201269 0.0557865
0.0566063 -0.0201269 0.0658933
0.0733869 -0.0201269 0.0760001
0.0901676 -0.0201269 0.0861069
0.106948 -0.0201269 0.0962137
0.123729 -0.0201269 0.10632
0.140509 -0.0201269 0.116427
0.15729 -0.0201269 0.126534
0.174071 -0.0201269 0.136641
0.190851 -0.0201269 0.146748
0.207632 -0.0201269 0.156854
0.224413 -0.0201269 0.166961
0.241193 -0.0201269 0.177068
0.257974 -0.0201269 0.187175
0.274755 -0.0201269 0.197282
0.291535 -0.0201269 0.207388
0.308316 -0.0201269 0.217495
0.325097 -0.0201269 0.227602
0.341877 -0.0201269 0.237709
0.358658 -0.0201269 0.247816
0.375438 -0.0201269 0.257922
0.392219 -0.0201269 0.268029
0.409 -0.0201269 0.278136
-0.413252 -0.0104078 -0.213594
-0.396471 -0.0104078 -0.203487
-0.37969 -0.0104078 -0.19338
-0.36291 -0.0104078 -0.183273
-0.346129 -0.0104078 -0.173166
-0.329348 -0.0104078 -0.16306
-0.312568 -0.0104078 -0.152953
-0.295787 -0.0104078 -0.142846
-0.279006 -0.0104078 -0.132739
-0.262226 -0.0104078 -0.122632
-0.245445 -0.0104078 -0.112526
-0.228665 -0.0104078 -0.102419
-0.211884 -0.0104078 -0.0923121
-0.195103 -0.0104078 -0.0822053
-0.178323 -0.0104078 -0.0720985
-0.161542 -0.0104078 -0.0619917
-0.144761 -0.0104078 -0.0518849
-0.127981 -0.0104078 -0.0417781
-0.1112 -0.0104078 -0.0316713
-0.0944195 -0.0104078 -0.0215645
-0.0776388 -0.0104078 -0.0114577
-0.0608582 -0.0104078 -0.00135094
-0.0440775 -0.0104078 0.00875585
-0.0272969 -0.0104078 0.0188626
-0.0105163 -0.0104078 0.0289694
0.00626438 -0.0104078 0.0390762
0.023045 -0.0104078 0.049183
0.0398257 -0.0104078 0.0592898
0.0566063 -0.0104078 0.0693966
0.0733869 -0.0104078 0.0795034
0.0901676 -0.0104078 0.0896102
0.106948 -0.0104078 0.099717
0.123729 -0.0104078 0.109824
0.140509 -0.0104078 0.119931
0.15729 -0.0104078 0.130037
0.174071 -0.0104078 0.140144
0.190851 -0.0104078 0.150251
0.207632 -0.0104078 0.160358
0.224413 -0.0104078 0.170465
0.241193 -0.0104078 0.180571
0.257974 -0.0104078 0.190678
0.274755 -0.0104078 0.200785
0.291535 -0.0104078 0.210892
0.308316 -0.0104078 0.220998
0.325097 -0.0104078 0.231105
0.341877 -0.0104078 0.241212
0.358658 -0.0104078 0.251319
0.375438 -0.0104078 0.261426
0.392219 -0.0104078 0.271532
0.409 -0.0104078 0.281639
-0.413252 -0.000688786 -0.21009
-0.396471 -0.000688786 -0.199983
-0.37969 -0.000688786 -0.189877
-0.36291 -0.000688786 -0.17977
-0.346129 -0.000688786 -0.169663
-0.329348 -0.000688786 -0.159556
-0.312568 -0.000688786 -0.14945
-0.295787 -0.000688786 -0.139343
-0.279006 -0.000688786 -0.129236
-0.262226 -0.000688786 -0.119129
-0.245445 -0.000688786 -0.109022
-0.228665 -0.000688786 -0.0989155
-0.211884 -0.000688786 -0.0888088
-0.195103 -0.000688786 -0.078702
-0.178323 -0.000688786 -0.0685952
-0.161542 -0.000688786 -0.0584884
-0.144761 -0.000688786 -0.0483816
-0.127981 -0.000688786 -0.0382748
-0.1112 -0.000688786 -0.028168
-0.0944195 -0.000688786 -0.0180612
-0.0776388 -0.000688786 -0.00795442
-0.0608582 -0.000688786 0.00215237
-0.0440775 -0.000688786 0.0122592
-0.0272969 -0.000688786 0.022366
-0.0105163 -0.000688786 0.0324727
0.00626438 -0.000688786 0.0425795
0.023045 -0.000688786 0.0526863
0.0398257 -0.000688786 0.0627931
0.0566063 -0.000688786 0.0728999
0.0733869 -0.000688786 0.0830067
0.0901676 -0.000688786 0.0931135
0.106948 -0.000688786 0.10322
0.123729 -0.000688786 0.113327
0.140509 -0.000688786 0.123434
0.15729 -0.000688786 0.133541
0.174071 -0.000688786 0.143647
0.190851 -0.000688786 0.153754
0.207632 -0.000688786 0.163861
0.224413 -0.000688786 0.173968
0.241193 -0.000688786 0.184075
0.257974 -0.000688786 0.194181
0.274755 -0.000688786 0.204288
0.291535 -0.000688786 0.214395
0.308316 -0.000688786 0.224502
0.325097 -0.000688786 0.234609
0.341877 -0.000688786 0.244715
0.358658 -0.000688786 0.254822
0.375438 -0.000688786 0.264929
0.392219 -0.000688786 0.275036
0.409 -0.000688786 0.285143
-0.413252 0.00903028 -0.206587
-0.396471 0.00903028 -0.19648
-0.37969 0.00903028 -0.186373
-0.36291 0.00903028 -0.176267
-0.346129 0.00903028 -0.16616
-0.329348 0.00903028 -0.156053
-0.312568 0.00903028 -0.145946
-0.295787 0.00903028 -0.135839
-0.279006 0.00903028 -0.125733
-0.262226 0.00903028 -0.115626
-0.245445 0.00903028 -0.105519
-0.228665 0.00903028 -0.0954122
-0.211884 0.00903028 -0.0853054
-0.195103 0.00903028 -0.0751986
-0.178323 0.00903028 -0.0650919
-0.161542 0.00903028 -0.0549851
-0.144761 0.00903028 -0.0448783
-0.127981 0.00903028 -0.0347715
-0.1112 0.00903028 -0.0246647
-0.0944195 0.00903028 -0.0145579
-0.0776388 0.00903028 -0.0044511
-0.0608582 0.00903028 0.00565569
-0.0440775 0.00903028 0.0157625
-0.0272969 0.00903028 0.0258693
-0.0105163 0.00903028 0.0359761
0.00626438 0.00903028 0.0460829
0.023045 0.00903028 0.0561897
0.0398257 0.00903028 0.0662964
0.0566063 0.00903028 0.0764032
0.0733869 0.00903028 0.08651
0.0901676 0.00903028 0.0966168
0.106948 0.00903028 0.106724
0.123729 0.00903028 0.11683
0.140509 0.00903028 0.126937
0.15729 0.00903028 0.137044
0.174071 0.00903028 0.147151
0.190851 0.00903028 0.157258
0.207632 0.00903028 0.167364
0.224413 0.00903028 0.177471
0.241193 0.00903028 0.187578
0.257974 0.00903028 0.197685
0.274755 0.00903028 0.207792
0.291535 0.00903028 0.217898
0.308316 0.00903028 0.228005
0.325097 0.00903028 0.238112
0.341877 0.00903028 0.248219
0.358658 0.00903028 0.258325
0.375438 0.00903028 0.268432
0.392219 0.00903028 0.278539
0.409 0.00903028 0.288646
-0.413252 0.0187493 -0.203084
-0.396471 0.0187493 -0.192977
-0.37969 0.0187493 -0.18287
-0.36291 0.0187493 -0.172763
-0.346129 0.0187493 -0.162656
-0.329348 0.0187493 -0.15255
-0.312568 0.0187493 -0.142443
-0.295787 0.0187493 -0.132336
-0.279006 0.0187493 -0.122229
-0.262226 0.0187493 -0.112122
-0.245445 0.0187493 -0.102016
-0.228665 0.0187493 -0.0919089
-0.211884 0.0187493 -0.0818021
-0.195103 0.0187493 -0.0716953
-0.178323 0.0187493 -0.0615885
-0.161542 0.0187493 -0.0514817
-0.144761 0.0187493 -0.041375
-0.127981 0.0187493 -0.0312682
-0.1112 0.0187493 -0.0211614
-0.0944195 0.0187493 -0.0110546
-0.0776388 0.0187493 -0.000947784
-0.0608582 0.0187493 0.00915901
-0.0440775 0.0187493 0.0192658
-0.0272969 0.0187493 0.0293726
-0.0105163 0.0187493 0.0394794
0.00626438 0.0187493 0.0495862
0.023045 0.0187493 0.059693
0.0398257 0.0187493 0.0697998
0.0566063 0.0187493 0.0799066
0.0733869 0.0187493 0.0900133
0.0901676 0.0187493 0.10012
0.106948 0.0187493 0.110227
0.123729 0.0187493 0.120334
0.140509 0.0187493 0.130441
0.15729 0.0187493 0.140547
0.174071 0.0187493 0.150654
0.190851 0.0187493 0.160761
0.207632 0.0187493 0.170868
0.224413 0.0187493 0.180974
0.241193 0.0187493 0.191081
0.257974 0.0187493 0.201188
0.274755 0.0187493 0.211295
0.291535 0.0187493 0.221402
0.308316 0.0187493 0.231508
0.325097 0.0187493 0.241615
0.341877 0.0187493 0.251722
0.358658 0.0187493 0.261829
0.375438 0.0187493 0.271936
0.392219 0.0187493 0.282042
0.409 0.0187493 0.292149
-0.413252 0.0284684 -0.19958
-0.396471 0.0284684 -0.189474
-0.37969 0.0284684 -0.179367
-0.36291 0.0284684 -0.16926
-0.346129 0.0284684 -0.159153
-0.329348 0.0284684 -0.149046
-0.312568 0.0284684 -0.13894
-0.295787 0.0284684 -0.128833
-0.279006 0.0284684 -0.118726
-0.262226 0.0284684 -0.108619
-0.245445 0.0284684 -0.0985124
-0.228665 0.0284684 -0.0884056
-0.211884 0.0284684 -0.0782988
-0.195103 0.0284684 -0.068192
-0.178323 0.0284684 -0.0580852
-0.161542 0.0284684 -0.0479784
-0.144761 0.0284684 -0.0378716
-0.127981 0.0284684 -0.0277648
-0.1112 0.0284684 -0.0176581
-0.0944195 0.0284684 -0.00755126
-0.0776388 0.0284684 0.00255553
-0.0608582 0.0284684 0.0126623
-0.0440775 0.0284684 0.0227691
-0.0272969 0.0284684 0.0328759
-0.0105163 0.0284684 0.0429827
0.00626438 0.0284684 0.0530895
0.023045 0.0284684 0.0631963
0.0398257 0.0284684 0.0733031
0.0566063 0.0284684 0.0834099
0.0733869 0.0284684 0.0935167
0.0901676 0.0284684 0.103623
0.106948 0.0284684 0.11373
0.123729 0.0284684 0.123837
0.140509 0.0284684 0.133944
0.15729 0.0284684 0.144051
0.174071 0.0284684 0.154157
0.190851 0.0284684 0.164264
0.207632 0.0284684 0.174371
0.224413 0.0284684 0.184478
0.241193 0.0284684 0.194585
0.257974 0.0284684 0.204691
0.274755 0.0284684 0.214798
0.291535 0.0284684 0.224905
0.308316 0.0284684 0.235012
0.325097 0.0284684 0.245119
0.341877 0.0284684 0.255225
0.358658 0.0284684 0.265332
0.375438 0.0284684 0.275439
0.392219 0.0284684 0.285546
0.409 0.0284684 0.295653
-0.413252 0.0381875 -0.196077
-0.396471 0.0381875 -0.18597
-0.37969 0.0381875 -0.175863
-0.36291 0.0381875 -0.165757
-0.346129 0.0381875 -0.15565
-0.329348 0.0381875 -0.145543
-0.312568 0.0381875 -0.135436
-0.295787 0.0381875 -0.125329
-0.279006 0.0381875 -0.115223
-0.262226 0.0381875 -0.105116
-0.245445 0.0381875 -0.0950091
-0.228665 0.0381875 -0.0849023
-0.211884 0.0381875 -0.0747955
-0.195103 0.0381875 -0.0646887
-0.178323 0.0381875 -0.0545819
-0.161542 0.0381875 -0.0444751
-0.144761 0.0381875 -0.0343683
-0.127981 0.0381875 -0.0242615
-0.1112 0.0381875 -0.0141547
-0.0944195 0.0381875 -0.00404794
-0.0776388 0.0381875 0.00605885
-0.0608582 0.0381875 0.0161656
-0.0440775 0.0381875 0.0262724
-0.0272969 0.0381875 0.0363792
-0.0105163 0.0381875 0.046486
0.00626438 0.0381875 0.0565928
0.023045 0.0381875 0.0666996
0.0398257 0.0381875 0.0768064
0.0566063 0.0381875 0.0869132
0.0733869 0.0381875 0.09702
0.0901676 0.0381875 0.107127
0.106948 0.0381875 0.117234
0.123729 0.0381875 0.12734
0.140509 0.0381875 0.137447
0.15729 0.0381875 0.147554
0.174071 0.0381875 0.157661
0.190851 0.0381875 0.167768
0.207632 0.0381875 0.177874
0.224413 0.0381875 0.187981
0.241193 0.0381875 0.198088
0.257974 0.0381875 0.208195
0.274755 0.0381875 0.218301
0.291535 0.0381875 0.228408
0.308316 0.0381875 0.238515
0.325097 0.0381875 0.248622
0.341877 0.0381875 0.258729
0.358658 0.0381875 0.268835
0.375438 0.0381875 0.278942
0.392219 0.0381875 0.289049
0.409 0.0381875 0.299156
-0.413252 0.0479065 -0.192574
-0.396471 0.0479065 -0.182467
-0.37969 0.0479065 -0.17236
-0.36291 0.0479065 -0.162253
-0.346129 0.0479065 -0.152147
-0.329348 0.0479065 -0.14204
-0.312568 0.0479065 -0.131933
-0.295787 0.0479065 -0.121826
-0.279006 0.0479065 -0.111719
-0.262226 0.0479065 -0.101613
-0.245445 0.0479065 -0.0915058
-0.228665 0.0479065 -0.081399
-0.211884 0.0479065 -0.0712922
-0.195103 0.0479065 -0.0611854
-0.178323 0.0479065 -0.0510786
-0.161542 0.0479065 -0.0409718
-0.144761 0.0479065 -0.030865
-0.127981 0.0479065 -0.0207582
-0.1112 0.0479065 -0.0106514
-0.0944195 0.0479065 -0.000544623
-0.0776388 0.0479065 0.00956217
-0.0608582 0.0479065 0.019669
-0.0440775 0.0479065 0.0297758
-0.0272969 0.0479065 0.0398825
-0.0105163 0.0479065 0.0499893
0.00626438 0.0479065 0.0600961
0.023045 0.0479065 0.0702029
0.0398257 0.0479065 0.0803097
0.0566063 0.0479065 0.0904165
0.0733869 0.0479065 0.100523
0.0901676 0.0479065 0.11063
0.106948 0.0479065 0.120737
0.123729 0.0479065 0.130844
0.140509 0.0479065 0.14095
0.15729 0.0479065 0.151057
0.174071 0.0479065 0.161164
0.190851 0.0479065 0.171271
0.207632 0.0479065 0.181378
0.224413 0.0479065 0.191484
0.241193 0.0479065 0.201591
0.257974 0.0479065 0.211698
0.274755 0.0479065 0.221805
0.291535 0.0479065 0.231912
0.308316 0.0479065 0.242018
0.325097 0.0479065 0.252125
0.341877 0.0479065 0.262232
0.358658 0.0479065 0.272339
0.375438 0.0479065 0.282446
0.392219 0.0479065 0.292552
0.409 0.0479065 0.302659
-0.413252 0.0576256 -0.18907
-0.396471 0.0576256 -0.178964
-0.37969 0.0576256 -0.168857
-0.36291 0.0576256 -0.15875
-0.346129 0.0576256 -0.148643
-0.329348 0.0576256 -0.138536
-0.312568 0.0576256 -0.12843
-0.295787 0.0576256 -0.118323
-0.279006 0.0576256 -0.108216
-0.262226 0.0576256 -0.0981092
-0.245445 0.0576256 -0.0880024
-0.228665 0.0576256 -0.0778956
-0.211884 0.0576256 -0.0677888
-0.195103 0.0576256 -0.0576821
-0.178323 0.0576256 -0.0475753
-0.161542 0.0576256 -0.0374685
-0.144761 0.0576256 -0.0273617
-0.127981 0.0576256 -0.0172549
-0.1112 0.0576256 -0.0071481
-0.0944195 0.0576256 0.00295869
-0.0776388 0.0576256 0.0130655
-0.0608582 0.0576256 0.0231723
-0.0440775 0.0576256 0.0332791
-0.0272969 0.0576256 0.0433859
-0.0105163 0.0576256 0.0534927
0.00626438 0.0576256 0.0635994
0.023045 0.0576256 0.0737062
0.0398257 0.0576256 0.083813
0.0566063 0.0576256 0.0939198
0.0733869 0.0576256 0.104027
0.0901676 0.0576256 0.114133
0.106948 0.0576256 0.12424
0.123729 0.0576256 0.134347
0.140509 0.0576256 0.144454
0.15729 0.0576256 0.154561
0.174071 0.0576256 0.164667
0.190851 0.0576256 0.174774
0.207632 0.0576256 0.184881
0.224413 0.0576256 0.194988
0.241193 0.0576256 0.205095
0.257974 0.0576256 0.215201
0.274755 0.0576256 0.225308
0.291535 0.0576256 0.235415
0.308316 0.0576256 0.245522
0.325097 0.0576256 0.255628
0.341877 0.0576256 0.265735
0.358658 0.0576256 0.275842
0.375438 0.0576256 0.285949
0.392219 0.0576256 0.296056
0.409 0.0576256 0.306162
-0.413252 0.0673446 -0.185567
-0.396471 0.0673446 -0.17546
-0.37969 0.0673446 -0.165353
-0.36291 0.0673446 -0.155247
-0.346129 0.0673446 -0.14514
-0.329348 0.0673446 -0.135033
-0.312568 0.0673446 -0.124926
-0.295787 0.0673446 -0.114819
-0.279006 0.0673446 -0.104713
-0.262226 0.0673446 -0.0946059
-0.245445 0.0673446 -0.0844991
-0.228665 0.0673446 -0.0743923
-0.211884 0.0673446 -0.0642855
-0.195103 0.0673446 -0.0541787
-0.178323 0.0673446 -0.0440719
-0.161542 0.0673446 -0.0339652
-0.144761 0.0673446 -0.0238584
-0.127981 0.0673446 -0.0137516
-0.1112 0.0673446 -0.00364478
-0.0944195 0.0673446 0.00646201
-0.0776388 0.0673446 0.0165688
-0.0608582 0.0673446 0.0266756
-0.0440775 0.0673446 0.0367824
-0.0272969 0.0673446 0.0468892
-0.0105163 0.0673446 0.056996
0.00626438 0.0673446 0.0671028
0.023045 0.0673446 0.0772096
0.0398257 0.0673446 0.0873163
0.0566063 0.0673446 0.0974231
0.0733869 0.0673446 0.10753
0.0901676 0.0673446 0.117637
0.106948 0.0673446 0.127744
0.123729 0.0673446 0.13785
0.140509 0.0673446 0.147957
0.15729 0.0673446 0.158064
0.174071 0.0673446 0.168171
0.190851 0.0673446 0.178277
0.207632 0.0673446 0.188384
0.224413 0.0673446 0.198491
0.241193 0.0673446 0.208598
0.257974 0.0673446 0.218705
0.274755 0.0673446 0.228811
0.291535 0.0673446 0.238918
0.308316 0.0673446 0.249025
0.325097 0.0673446 0.259132
0.341877 0.0673446 0.269239
0.358658 0.0673446 0.279345
0.375438 0.0673446 0.289452
0.392219 0.0673446 0.299559
0.409 0.0673446 0.309666
-0.413252 0.0770637 -0.182064
-0.396471 0.0770637 -0.171957
-0.37969 0.0770637 -0.16185
-0.36291 0.0770637 -0.151743
-0.346129 0.0770637 -0.141637
-0.329348 0.0770637 -0.13153
-0.312568 0.0770637 -0.121423
-0.295787 0.0770637 -0.111316
-0.279006 0.0770637 -0.101209
-0.262226 0.0770637 -0.0911026
-0.245445 0.0770637 -0.0809958
-0.228665 0.0770637 -0.070889
-0.211884 0.0770637 -0.0607822
-0.195103 0.0770637 -0.0506754
-0.178323 0.0770637 -0.0405686
-0.161542 0.0770637 -0.0304618
-0.144761 0.0770637 -0.020355
-0.127981 0.0770637 -0.0102483
-0.1112 0.0770637 -0.000141462
-0.0944195 0.0770637 0.00996533
-0.0776388 0.0770637 0.0200721
-0.0608582 0.0770637 0.0301789
-0.0440775 0.0770637 0.0402857
-0.0272969 0.0770637 0.0503925
-0.0105163 0.0770637 0.0604993
0.00626438 0.0770637 0.0706061
0.023045 0.0770637 0.0807129
0.0398257 0.0770637 0.0908197
0.0566063 0.0770637 0.100926
0.0733869 0.0770637 0.111033
0.0901676 0.0770637 0.12114
0.106948 0.0770637 0.131247
0.123729 0.0770637 0.141354
0.140509 0.0770637 0.15146
0.15729 0.0770637 0.161567
0.174071 0.0770637 0.171674
0.190851 0.0770637 0.181781
0.207632 0.0770637 0.191888
0.224413 0.0770637 0.201994
0.241193 0.0770637 0.212101
0.257974 0.0770637 0.222208
0.274755 0.0770637 0.232315
0.291535 0.0770637 0.242422
0.308316 0.0770637 0.252528
0.325097 0.0770637 0.262635
0.341877 0.0770637 0.272742
0.358658 0.0770637 0.282849
0.375438 0.0770637 0.292956
0.392219 0.0770637 0.303062
0.409 0.0770637 0.313169
-0.413252 0.0867828 -0.17856
-0.396471 0.0867828 -0.168454
-0.37969 0.0867828 -0.158347
-0.36291 0.0867828 -0.14824
-0.346129 0.0867828 -0.138133
-0.329348 0.0867828 -0.128026
-0.312568 0.0867828 -0.11792
-0.295787 0.0867828 -0.107813
-0.279006 0.0867828 -0.0977061
-0.262226 0.0867828 -0.0875993
-0.245445 0.0867828 -0.0774925
-0.228665 0.0867828 -0.0673857
-0.211884 0.0867828 -0.0572789
-0.195103 0.0867828 -0.0471721
-0.178323 0.0867828 -0.0370653
-0.161542 0.0867828 -0.0269585
-0.144761 0.0867828 -0.0168517
-0.127981 0.0867828 -0.00674494
-0.1112 0.0867828 0.00336186
-0.0944195 0.0867828 0.0134686
-0.0776388 0.0867828 0.0235754
-0.0608582 0.0867828 0.0336822
-0.0440775 0.0867828 0.043789
-0.0272969 0.0867828 0.0538958
-0.0105163 0.0867828 0.0640026
0.00626438 0.0867828 0.0741094
0.023045 0.0867828 0.0842162
0.0398257 0.0867828 0.094323
0.0566063 0.0867828 0.10443
0.0733869 0.0867828 0.114537
0.0901676 0.0867828 0.124643
0.106948 0.0867828 0.13475
0.123729 0.0867828 0.144857
0.140509 0.0867828 0.154964
0.15729 0.0867828 0.165071
0.174071 0.0867828 0.175177
0.190851 0.0867828 0.185284
0.207632 0.0867828 0.195391
0.224413 0.0867828 0.205498
0.241193 0.0867828 0.215604
0.257974 0.0867828 0.225711
0.274755 0.0867828 0.235818
0.291535 0.0867828 0.245925
0.308316 0.0867828 0.256032
0.325097 0.0867828 0.266138
0.341877 0.0867828 0.276245
0.358658 0.0867828 0.286352
0.375438 0.0867828 0.296459
0.392219 0.0867828 0.306566
0.409 0.0867828 0.316672
-0.413252 0.0965018 -0.175057
-0.396471 0.0965018 -0.16495
-0.37969 0.0965018 -0.154844
-0.36291 0.0965018 -0.144737
-0.346129 0.0965018 -0.13463
-0.329348 0.0965018 -0.124523
-0.312568 0.0965018 -0.114416
-0.295787 0.0965018 -0.10431
-0.279006 0.0965018 -0.0942027
-0.262226 0.0965018 -0.084096
-0.245445 0.0965018 -0.0739892
-0.228665 0.0965018 -0.0638824
-0.211884 0.0965018 -0.0537756
-0.195103 0.0965018 -0.0436688
-0.178323 0.0965018 -0.033562
-0.161542 0.0965018 -0.0234552
-0.144761 0.0965018 -0.0133484
-0.127981 0.0965018 -0.00324162
-0.1112 0.0965018 0.00686517
-0.0944195 0.0965018 0.016972
-0.0776388 0.0965018 0.0270788
-0.0608582 0.0965018 0.0371855
-0.0440775 0.0965018 0.0472923
-0.0272969 0.0965018 0.0573991
-0.0105163 0.0965018 0.0675059
0.00626438 0.0965018 0.0776127
0.023045 0.0965018 0.0877195
0.0398257 0.0965018 0.0978263
0.0566063 0.0965018 0.107933
0.0733869 0.0965018 0.11804
0.0901676 0.0965018 0.128147
0.106948 0.0965018 0.138253
0.123729 0.0965018 0.14836
0.140509 0.0965018 0.158467
0.15729 0.0965018 0.168574
0.174071 0.0965018 0.178681
0.190851 0.0965018 0.188787
0.207632 0.0965018 0.198894
0.224413 0.0965018 0.209001
0.241193 0.0965018 0.219108
0.257974 0.0965018 0.229215
0.274755 0.0965018 0.239321
0.291535 0.0965018 0.249428
0.308316 0.0965018 0.259535
0.325097 0.0965018 0.269642
0.341877 0.0965018 0.279749
0.358658 0.0965018 0.289855
0.375438 0.0965018 0.299962
0.392219 0.0965018 0.310069
0.409 0.0965018 0.320176
-0.413252 0.106221 -0.171554
-0.396471 0.106221 -0.161447
-0.37969 0.106221 -0.15134
-0.36291 0.106221 -0.141233
-0.346129 0.106221 -0.131127
-0.329348 0.106221 -0.12102
-0.312568 0.106221 -0.110913
-0.295787 0.106221 -0.100806
-0.279006 0.106221 -0.0906994
-0.262226 0.106221 -0.0805926
-0.245445 0.106221 -0.0704858
-0.228665 0.106221 -0.0603791
-0.211884 0.106221 -0.0502723
-0.195103 0.106221 -0.0401655
-0.178323 0.106221 -0.0300587
-0.161542 0.106221 -0.0199519
-0.144761 0.106221 -0.00984509
-0.127981 0.106221 0.000261699
-0.1112 0.106221 0.0103685
-0.0944195 0.106221 0.0204753
-0.0776388 0.106221 0.0305821
-0.0608582 0.106221 0.0406889
-0.0440775 0.106221 0.0507957
-0.0272969 0.106221 0.0609025
-0.0105163 0.106221 0.0710092
0.00626438 0.106221 0.081116
0.023045 0.106221 0.0912228
0.0398257 0.106221 0.10133
0.0566063 0.106221 0.111436
0.0733869 0.106221 0.121543
0.0901676 0.106221 0.13165
0.106948 0.106221 0.141757
0.123729 0.106221 0.151864
0.140509 0.106221 0.16197
0.15729 0.106221 0.172077
0.174071 0.106221 0.182184
0.190851 0.106221 0.192291
0.207632 0.106221 0.202398
0.224413 0.106221 0.212504
0.241193 0.106221 0.222611
0.257974 0.106221 0.232718
0.274755 0.106221 0.242825
0.291535 0.106221 0.252932
0.308316 0.106221 0.263038
0.325097 0.106221 0.273145
0.341877 0.106221 0.283252
0.358658 0.106221 0.293359
0.375438 0.106221 0.303465
0.392219 0.106221 0.313572
0.409 0.106221 0.323679
-0.413252 0.11594 -0.16805
-0.396471 0.11594 -0.157944
-0.37969 0.11594 -0.147837
-0.36291 0.11594 -0.13773
-0.346129 0.11594 -0.127623
-0.329348 0.11594 -0.117516
-0.312568 0.11594 -0.10741
-0.295787 0.11594 -0.0973029
-0.279006 0.11594 -0.0871961
-0.262226 0.11594 -0.0770893
-0.245445 0.11594 -0.0669825
-0.228665 0.11594 -0.0568757
-0.211884 0.11594 -0.0467689
-0.195103 0.11594 -0.0366622
-0.178323 0.11594 -0.0265554
-0.161542 0.11594 -0.0164486
-0.144761 0.11594 -0.00634178
-0.127981 0.11594 0.00376502
-0.1112 0.11594 0.0138718
-0.0944195 0.11594 0.0239786
-0.0776388 0.11594 0.0340854
-0.0608582 0.11594 0.0441922
-0.0440775 0.11594 0.054299
-0.0272969 0.11594 0.0644058
-0.0105163 0.11594 0.0745126
0.00626438 0.11594 0.0846194
0.023045 0.11594 0.0947261
0.0398257 0.11594 0.104833
0.0566063 0.11594 0.11494
0.0733869 0.11594 0.125047
0.0901676 0.11594 0.135153
0.106948 0.11594 0.14526
0.123729 0.11594 0.155367
0.140509 0.11594 0.165474
0.15729 0.11594 0.17558
0.174071 0.11594 0.185687
0.190851 0.11594 0.195794
0.207632 0.11594 0.205901
0.224413 0.11594 0.216008
0.241193 0.11594 0.226114
0.257974 0.11594 0.236221
0.274755 0.11594 0.246328
0.291535 0.11594 0.256435
0.308316 0.11594 0.266542
0.325097 0.11594 0.276648
0.341877 0.11594 0.286755
0.358658 0.11594 0.296862
0.375438 0.11594 0.306969
0.392219 0.11594 0.317076
0.409 0.11594 0.327182
-0.413252 0.125659 -0.164547
-0.396471 0.125659 -0.15444
-0.37969 0.125659 -0.144334
-0.36291 0.125659 -0.134227
-0.346129 0.125659 -0.12412
-0.329348 0.125659 -0.114013
-0.312568 0.125659 -0.103906
-0.295787 0.125659 -0.0937996
-0.279006 0.125659 -0.0836928
-0.262226 0.125659 -0.073586
-0.245445 0.125659 -0.0634792
-0.228665 0.125659 -0.0533724
-0.211884 0.125659 -0.0432656
-0.195103 0.125659 -0.0331588
-0.178323 0.125659 -0.023052
-0.161542 0.125659 -0.0129453
-0.144761 0.125659 -0.00283846
-0.127981 0.125659 0.00726833
-0.1112 0.125659 0.0173751
-0.0944195 0.125659 0.0274819
-0.0776388 0.125659 0.0375887
-0.0608582 0.125659 0.0476955
-0.0440775 0.125659 0.0578023
-0.0272969 0.125659 0.0679091
-0.0105163 0.125659 0.0780159
0.00626438 0.125659 0.0881227
0.023045 0.125659 0.0982295
0.0398257 0.125659 0.108336
0.0566063 0.125659 0.118443
0.0733869 0.125659 0.12855
0.0901676 0.125659 0.138657
0.106948 0.125659 0.148763
0.123729 0.125659 0.15887
0.140509 0.125659 0.168977
0.15729 0.125659 0.179084
0.174071 0.125659 0.189191
0.190851 0.125659 0.199297
0.207632 0.125659 0.209404
0.224413 0.125659 0.219511
0.241193 0.125659 0.229618
0.257974 0.125659 0.239725
0.274755 0.125659 0.249831
0.291535 0.125659 0.259938
0.308316 0.125659 0.270045
0.325097 0.125659 0.280152
0.341877 0.125659 0.290259
0.358658 0.125659 0.300365
0.375438 0.125659 0.310472
0.392219 0.125659 0.320579
0.409 0.125659 0.330686
-0.413252 0.135378 -0.161044
-0.396471 0.135378 -0.150937
-0.37969 0.135378 -0.14083
-0.36291 0.135378 -0.130723
-0.346129 0.135378 -0.120617
-0.329348 0.135378 -0.11051
-0.312568 0.135378 -0.100403
-0.295787 0.135378 -0.0902963
-0.279006 0.135378 -0.0801895
-0.262226 0.135378 -0.0700827
-0.245445 0.135378 -0.0599759
-0.228665 0.135378 -0.0498691
-0.211884 0.135378 -0.0397623
-0.195103 0.135378 -0.0296555
-0.178323 0.135378 -0.0195487
-0.161542 0.135378 -0.00944193
-0.144761 0.135378 0.00066486
-0.127981 0.135378 0.0107717
-0.1112 0.135378 0.0208784
-0.0944195 0.135378 0.0309852
-0.0776388 0.135378 0.041092
-0.0608582 0.135378 0.0511988
-0.0440775 0.135378 0.0613056
-0.0272969 0.135378 0.0714124
-0.0105163 0.135378 0.0815192
0.00626438 0.135378 0.091626
0.023045 0.135378 0.101733
0.0398257 0.135378 0.11184
0.0566063 0.135378 0.121946
0.0733869 0.135378 0.132053
0.0901676 0.135378 0.14216
0.106948 0.135378 0.152267
0.123729 0.135378 0.162374
0.140509 0.135378 0.17248
0.15729 0.135378 0.182587
0.174071 0.135378 0.192694
0.190851 0.135378 0.202801
0.207632 0.135378 0.212907
0.224413 0.135378 0.223014
0.241193 0.135378 0.233121
0.257974 0.135378 0.243228
0.274755 0.135378 0.253335
0.291535 0.135378 0.263441
0.308316 0.135378 0.273548
0.325097 0.135378 0.283655
0.341877 0.135378 0.293762
0.358658 0.135378 0.303869
0.375438 0.135378 0.313975
0.392219 0.135378 0.324082
0.409 0.135378 0.334189
-0.413252 0.145097 -0.15754
-0.396471 0.145097 -0.147434
-0.37969 0.145097 -0.137327
-0.36291 0.145097 -0.12722
-0.346129 0.145097 -0.117113
-0.329348 0.145097 -0.107007
-0.312568 0.145097 -0.0968997
-0.295787 0.145097 -0.086793
-0.279006 0.145097 -0.0766862
-0.262226 0.145097 -0.0665794
-0.245445 0.145097 -0.0564726
-0.228665 0.145097 -0.0463658
-0.211884 0.145097 -0.036259
-0.195103 0.145097 -0.0261522
-0.178323 0.145097 -0.0160454
-0.161542 0.145097 -0.00593861
-0.144761 0.145097 0.00416818
-0.127981 0.145097 0.014275
-0.1112 0.145097 0.0243818
-0.0944195 0.145097 0.0344886
-0.0776388 0.145097 0.0445953
-0.0608582 0.145097 0.0547021
-0.0440775 0.145097 0.0648089
-0.0272969 0.145097 0.0749157
-0.0105163 0.145097 0.0850225
0.00626438 0.145097 0.0951293
0.023045 0.145097 0.105236
0.0398257 0.145097 0.115343
0.0566063 0.145097 0.12545
0.0733869 0.145097 0.135556
0.0901676 0.145097 0.145663
0.106948 0.145097 0.15577
0.123729 0.145097 0.165877
0.140509 0.145097 0.175984
0.15729 0.145097 0.18609
0.174071 0.145097 0.196197
0.190851 0.145097 0.206304
0.207632 0.145097 0.216411
0.224413 0.145097 0.226518
0.241193 0.145097 0.236624
0.257974 0.145097 0.246731
0.274755 0.145097 0.256838
0.291535 0.145097 0.266945
0.308316 0.145097 0.277052
0.325097 0.145097 0.287158
0.341877 0.145097 0.297265
0.358658 0.145097 0.307372
0.375438 0.145097 0.317479
0.392219 0.145097 0.327586
0.409 0.145097 0.337692
-0.413252 0.154816 -0.154037
-0.396471 0.154816 -0.14393
-0.37969 0.154816 -0.133824
-0.36291 0.154816 -0.123717
-0.346129 0.154816 -0.11361
-0.329348 0.154816 -0.103503
-0.312568 0.154816 -0.0933964
-0.295787 0.154816 -0.0832896
-0.279006 0.154816 -0.0731828
-0.262226 0.154816 -0.063076
-0.245445 0.154816 -0.0529693
-0.228665 0.154816 -0.0428625
-0.211884 0.154816 -0.0327557
-0.195103 0.154816 -0.0226489
-0.178323 0.154816 -0.0125421
-0.161542 0.154816 -0.0024353
-0.144761 0.154816 0.0076715
-0.127981 0.154816 0.0177783
-0.1112 0.154816 0.0278851
-0.0944195 0.154816 0.0379919
-0.0776388 0.154816 0.0480987
-0.0608582 0.154816 0.0582055
-0.0440775 0.154816 0.0683122
-0.0272969 0.154816 0.078419
-0.0105163 0.154816 0.0885258
0.00626438 0.154816 0.0986326
0.023045 0.154816 0.108739
0.0398257 0.154816 0.118846
0.0566063 0.154816 0.128953
0.0733869 0.154816 0.13906
0.0901676 0.154816 0.149167
0.106948 0.154816 0.159273
0.123729 0.154816 0.16938
0.140509 0.154816 0.179487
0.15729 0.154816 0.189594
0.174071 0.154816 0.199701
0.190851 0.154816 0.209807
0.207632 0.154816 0.219914
0.224413 0.154816 0.230021
0.241193 0.154816 0.240128
0.257974 0.154816 0.250235
0.274755 0.154816 0.260341
0.291535 0.154816 0.270448
0.308316 0.154816 0.280555
0.325097 0.154816 0.290662
0.341877 0.154816 0.300768
0.358658 0.154816 0.310875
0.375438 0.154816 0.320982
0.392219 0.154816 0.331089
0.409 0.154816 0.341196
-0.413252 0.164535 -0.150534
-0.396471 0.164535 -0.140427
-0.37969 0.164535 -0.13032
-0.36291 0.164535 -0.120213
-0.346129 0.164535 -0.110107
-0.329348 0.164535 -0.0999999
-0.312568 0.164535 -0.0898931
-0.295787 0.164535 -0.0797863
-0.279006 0.164535 -0.0696795
-0.262226 0.164535 -0.0595727
-0.245445 0.164535 -0.0494659
-0.228665 0.164535 -0.0393591
-0.211884 0.164535 -0.0292524
-0.195103 0.164535 -0.0191456
-0.178323 0.164535 -0.00903877
-0.161542 0.164535 0.00106802
-0.144761 0.164535 0.0111748
-0.127981 0.164535 0.0212816
-0.1112 0.164535 0.0313884
-0.0944195 0.164535 0.0414952
-0.0776388 0.164535 0.051602
-0.0608582 0.164535 0.0617088
-0.0440775 0.164535 0.0718156
-0.0272969 0.164535 0.0819224
-0.0105163 0.164535 0.0920291
0.00626438 0.164535 0.102136
0.023045 0.164535 0.112243
0.0398257 0.164535 0.12235
0.0566063 0.164535 0.132456
0.0733869 0.164535 0.142563
0.0901676 0.164535 0.15267
0.106948 0.164535 0.162777
0.123729 0.164535 0.172883
0.140509 0.164535 0.18299
0.15729 0.164535 0.193097
0.174071 0.164535 0.203204
0.190851 0.164535 0.213311
0.207632 0.164535 0.223417
0.224413 0.164535 0.233524
0.241193 0.164535 0.243631
0.257974 0.164535 0.253738
0.274755 0.164535 0.263845
0.291535 0.164535 0.273951
0.308316 0.164535 0.284058
0.325097 0.164535 0.294165
0.341877 0.164535 0.304272
0.358658 0.164535 0.314379
0.375438 0.164535 0.324485
0.392219 0.164535 0.334592
0.409 0.164535 0.344699
-0.413252 0.174254 -0.147031
-0.396471 0.174254 -0.136924
-0.37969 0.174254 -0.126817
-0.36291 0.174254 -0.11671
-0.346129 0.174254 -0.106603
-0.329348 0.174254 -0.0964966
-0.312568 0.174254 -0.0863898
-0.295787 0.174254 -0.076283
-0.279006 0.174254 -0.0661762
-0.262226 0.174254 -0.0560694
-0.245445 0.174254 -0.0459626
-0.228665 0.174254 -0.0358558
-0.211884 0.174254 -0.025749
-0.195103 0.174254 -0.0156422
-0.178323 0.174254 -0.00553545
-0.161542 0.174254 0.00457134
-0.144761 0.174254 0.0146781
-0.127981 0.174254 0.0247849
-0.1112 0.174254 0.0348917
-0.0944195 0.174254 0.0449985
-0.0776388 0.174254 0.0551053
-0.0608582 0.174254 0.0652121
-0.0440775 0.174254 0.0753189
-0.0272969 0.174254 0.0854257
-0.0105163 0.174254 0.0955325
0.00626438 0.174254 0.105639
0.023045 0.174254 0.115746
0.0398257 0.174254 0.125853
0.0566063 0.174254 0.13596
0.0733869 0.174254 0.146066
0.0901676 0.174254 0.156173
0.106948 0.174254 0.16628
0.123729 0.174254 0.176387
0.140509 0.174254 0.186494
0.15729 0.174254 0.1966
0.174071 0.174254 0.206707
0.190851 0.174254 0.216814
0.207632 0.174254 0.226921
0.224413 0.174254 0.237028
0.241193 0.174254 0.247134
0.257974 0.174254 0.257241
0.274755 0.174254 0.267348
0.291535 0.174254 0.277455
0.308316 0.174254 0.287562
0.325097 0.174254 0.297668
0.341877 0.174254 0.307775
0.358658 0.174254 0.317882
0.375438 0.174254 0.327989
0.392219 0.174254 0.338095
0.409 0.174254 0.348202
-0.413252 0.183973 -0.143527
-0.396471 0.183973 -0.13342
-0.37969 0.183973 -0.123314
-0.36291 0.183973 -0.113207
-0.346129 0.183973 -0.1031
-0.329348 0.183973 -0.0929933
-0.312568 0.183973 -0.0828865
-0.295787 0.183973 -0.0727797
-0.279006 0.183973 -0.0626729
-0.262226 0.183973 -0.0525661
-0.245445 0.183973 -0.0424593
-0.228665 0.183973 -0.0323525
-0.211884 0.183973 -0.0222457
-0.195103 0.183973 -0.0121389
-0.178323 0.183973 -0.00203214
-0.161542 0.183973 0.00807466
-0.144761 0.183973 0.0181814
-0.127981 0.183973 0.0282882
-0.1112 0.183973 0.038395
-0.0944195 0.183973 0.0485018
-0.0776388 0.183973 0.0586086
-0.0608582 0.183973 0.0687154
-0.0440775 0.183973 0.0788222
-0.0272969 0.183973 0.088929
-0.0105163 0.183973 0.0990358
0.00626438 0.183973 0.109143
0.023045 0.183973 0.119249
0.0398257 0.183973 0.129356
0.0566063 0.183973 0.139463
0.0733869 0.183973 0.14957
0.0901676 0.183973 0.159677
0.106948 0.183973 0.169783
0.123729 0.183973 0.17989
0.140509 0.183973 0.189997
0.15729 0.183973 0.200104
0.174071 0.183973 0.21021
0.190851 0.183973 0.220317
0.207632 0.183973 0.230424
0.224413 0.183973 0.240531
0.241193 0.183973 0.250638
0.257974 0.183973 0.260744
0.274755 0.183973 0.270851
0.291535 0.183973 0.280958
0.308316 0.183973 0.291065
0.325097 0.183973 0.301172
0.341877 0.183973 0.311278
0.358658 0.183973 0.321385
0.375438 0.183973 0.331492
0.392219 0.183973 0.341599
0.409 0.183973 0.351706
-0.413252 0.193692 -0.140024
-0.396471 0.193692 -0.129917
-0.37969 0.193692 -0.11981
-0.36291 0.193692 -0.109704
-0.346129 0.193692 -0.0995967
-0.329348 0.193692 -0.0894899
-0.312568 0.193692 -0.0793832
-0.295787 0.193692 -0.0692764
-0.279006 0.193692 -0.0591696
-0.262226 0.193692 -0.0490628
-0.245445 0.193692 -0.038956
-0.228665 0.193692 -0.0288492
-0.211884 0.193692 -0.0187424
-0.195103 0.193692 -0.00863561
-0.178323 0.193692 0.00147118
-0.161542 0.193692 0.011578
-0.144761 0.193692 0.0216848
-0.127981 0.193692 0.0317916
-0.1112 0.193692 0.0418983
-0.0944195 0.193692 0.0520051
-0.0776388 0.193692 0.0621119
-0.0608582 0.193692 0.0722187
-0.0440775 0.193692 0.0823255
-0.0272969 0.193692 0.0924323
-0.0105163 0.193692 0.102539
0.00626438 0.193692 0.112646
0.023045 0.193692 0.122753
0.0398257 0.193692 0.132859
0.0566063 0.193692 0.142966
0.0733869 0.193692 0.153073
0.0901676 0.193692 0.16318
0.106948 0.193692 0.173287
0.123729 0.193692 0.183393
0.140509 0.193692 0.1935
0.15729 0.193692 0.203607
0.174071 0.193692 0.213714
0.190851 0.193692 0.223821
0.207632 0.193692 0.233927
0.224413 0.193692 0.244034
0.241193 0.193692 0.254141
0.257974 0.193692 0.264248
0.274755 0.193692 0.274355
0.291535 0.193692 0.284461
0.308316 0.193692 0.294568
0.325097 0.193692 0.304675
0.341877 0.193692 0.314782
0.358658 0.193692 0.324889
0.375438 0.193692 0.334995
0.392219 0.193692 0.345102
0.409 0.193692 0.355209
-0.413252 0.203412 -0.136521
-0.396471 0.203412 -0.126414
-0.37969 0.203412 -0.116307
-0.36291 0.203412 -0.1062
-0.346129 0.203412 -0.0960934
-0.329348 0.203412 -0.0859866
-0.312568 0.203412 -0.0758798
-0.295787 0.203412 -0.065773
-0.279006 0.203412 -0.0556663
-0.262226 0.203412 -0.0455595
-0.245445 0.203412 -0.0354527
-0.228665 0.203412 -0.0253459
-0.211884 0.203412 -0.0152391
-0.195103 0.203412 -0.00513229
-0.178323 0.203412 0.0049745
-0.161542 0.203412 0.0150813
-0.144761 0.203412 0.0251881
-0.127981 0.203412 0.0352949
-0.1112 0.203412 0.0454017
-0.0944195 0.203412 0.0555085
-0.0776388 0.203412 0.0656153
-0.0608582 0.203412 0.075722
-0.0440775 0.203412 0.0858288
-0.0272969 0.203412 0.0959356
-0.0105163 0.203412 0.106042
0.00626438 0.203412 0.116149
0.023045 0.203412 0.126256
0.0398257 0.203412 0.136363
0.0566063 0.203412 0.14647
0.0733869 0.203412 0.156576
0.0901676 0.203412 0.166683
0.106948 0.203412 0.17679
0.123729 0.203412 0.186897
0.140509 0.203412 0.197004
0.15729 0.203412 0.20711
0.174071 0.203412 0.217217
0.190851 0.203412 0.227324
0.207632 0.203412 0.237431
0.224413 0.203412 0.247538
0.241193 0.203412 0.257644
0.257974 0.203412 0.267751
0.274755 0.203412 0.277858
0.291535 0.203412 0.287965
0.308316 0.203412 0.298071
0.325097 0.203412 0.308178
0.341877 0.203412 0.318285
0.358658 0.203412 0.328392
0.375438 0.203412 0.338499
0.392219 0.203412 0.348605
0.409 0.203412 0.358712
-0.413252 0.213131 -0.133017
-0.396471 0.213131 -0.12291
-0.37969 0.213131 -0.112804
-0.36291 0.213131 -0.102697
-0.346129 0.213131 -0.0925901
-0.329348 0.213131 -0.0824833
-0.312568 0.213131 -0.0723765
-0.295787 0.213131 -0.0622697
-0.279006 0.213131 -0.0521629
-0.262226 0.213131 -0.0420561
-0.245445 0.213131 -0.0319494
-0.228665 0.213131 -0.0218426
-0.211884 0.213131 -0.0117358
-0.195103 0.213131 -0.00162898
-0.178323 0.213131 0.00847782
-0.161542 0.213131 0.0185846
-0.144761 0.213131 0.0286914
-0.127981 0.213131 0.0387982
-0.1112 0.213131 0.048905
-0.0944195 0.213131 0.0590118
-0.0776388 0.213131 0.0691186
-0.0608582 0.213131 0.0792254
-0.0440775 0.213131 0.0893322
-0.0272969 0.213131 0.0994389
-0.0105163 0.213131 0.109546
0.00626438 0.213131 0.119653
0.023045 0.213131 0.129759
0.0398257 0.213131 0.139866
0.0566063 0.213131 0.149973
0.0733869 0.213131 0.16008
0.0901676 0.213131 0.170186
0.106948 0.213131 0.180293
0.123729 0.213131 0.1904
0.140509 0.213131 0.200507
0.15729 0.213131 0.210614
0.174071 0.213131 0.22072
0.190851 0.213131 0.230827
0.207632 0.213131 0.240934
0.224413 0.213131 0.251041
0.241193 0.213131 0.261148
0.257974 0.213131 0.271254
0.274755 0.213131 0.281361
0.291535 0.213131 0.291468
0.308316 0.213131 0.301575
0.325097 0.213131 0.311682
0.341877 0.213131 0.321788
0.358658 0.213131 0.331895
0.375438 0.213131 0.342002
0.392219 0.213131 0.352109
0.409 0.213131 0.362216
-0.413252 0.22285 -0.129514
-0.396471 0.22285 -0.119407
-0.37969 0.22285 -0.1093
-0.36291 0.22285 -0.0991936
-0.346129 0.22285 -0.0890868
-0.329348 0.22285 -0.07898
-0.312568 0.22285 -0.0688732
-0.295787 0.22285 -0.0587664
-0.279006 0.22285 -0.0486596
-0.262226 0.22285 -0.0385528
-0.245445 0.22285 -0.028446
-0.228665 0.22285 -0.0183392
-0.211884 0.22285 -0.00823245
-0.195103 0.22285 0.00187434
-0.178323 0.22285 0.0119811
-0.161542 0.22285 0.0220879
-0.144761 0.22285 0.0321947
-0.127981 0.22285 0.0423015
-0.1112 0.22285 0.0524083
-0.0944195 0.22285 0.0625151
-0.0776388 0.22285 0.0726219
-0.0608582 0.22285 0.0827287
-0.0440775 0.22285 0.0928355
-0.0272969 0.22285 0.102942
-0.0105163 0.22285 0.113049
0.00626438 0.22285 0.123156
0.023045 0.22285 0.133263
0.0398257 0.22285 0.143369
0.0566063 0.22285 0.153476
0.0733869 0.22285 0.163583
0.0901676 0.22285 0.17369
0.106948 0.22285 0.183797
0.123729 0.22285 0.193903
0.140509 0.22285 0.20401
0.15729 0.22285 0.214117
0.174071 0.22285 0.224224
0.190851 0.22285 0.234331
0.207632 0.22285 0.244437
0.224413 0.22285 0.254544
0.241193 0.22285 0.264651
0.257974 0.22285 0.274758
0.274755 0.22285 0.284865
0.291535 0.22285 0.294971
0.308316 0.22285 0.305078
0.325097 0.22285 0.315185
0.341877 0.22285 0.325292
0.358658 0.22285 0.335398
0.375438 0.22285 0.345505
0.392219 0.22285 0.355612
0.409 0.22285 0.365719
-0.413252 0.232569 -0.126011
-0.396471 0.232569 -0.115904
-0.37969 0.232569 -0.105797
-0.36291 0.232569 -0.0956903
-0.346129 0.232569 -0.0855835
-0.329348 0.232569 -0.0754767
-0.312568 0.232569 -0.0653699
-0.295787 0.232569 -0.0552631
-0.279006 0.232569 -0.0451563
-0.262226 0.232569 -0.0350495
-0.245445 0.232569 -0.0249427
-0.228665 0.232569 -0.0148359
